X Y Z
-2.941231 2.202024 -0.581936
-4.448746 3.332101 0.682468
-2.937305 2.200985 -0.450673
-4.454048 3.338955 0.881665
-4.440704 3.330389 -0.485632
-2.950750 2.213925 0.717060
-4.432603 3.327185 -0.290465
-2.956073 2.219835 0.853464
-4.454215 3.346295 -0.097245
-2.955795 2.221543 0.990759
-2.427265 1.825094 -0.813727
-0.000000 0.000000 0.000000
-2.562945 1.928777 -0.740539
-4.501168 3.388872 0.295279
-2.632978 1.983191 -0.640737
-4.418779 3.329713 0.484063
-2.941800 2.217711 -0.583501
-4.424993 3.337272 0.680518
-2.944252 2.221474 -0.452866
-4.427185 3.341805 0.878536
-4.407376 3.328287 -0.483191
-2.960623 2.236716 0.721258
-4.408798 3.332232 -0.289627
-2.964239 2.241379 0.857963
-4.411198 3.336920 -0.096547
-2.949952 2.232499 0.991277
-2.424280 1.835465 -0.814762
-0.000000 0.000000 0.000000
-2.567343 1.945588 -0.743688
-0.000000 0.000000 0.000000
-2.645027 2.006321 -0.645316
-4.382045 3.325438 0.481274
-2.945224 2.236104 -0.585691
-4.396129 3.339225 0.677837
-2.952382 2.243621 -0.455304
-4.384134 3.333207 0.872279
-4.373567 3.326717 -0.480751
-2.957472 2.250620 0.722403
-4.385943 3.339228 -0.288894
-2.962512 2.256549 0.859763
-4.396160 3.350113 -0.096477
-2.952737 2.251190 0.994900
-2.428450 1.852328 -0.818386
-0.000000 0.000000 0.000000
-2.544877 1.942935 -0.739189
-4.398170 3.359425 0.290046
-2.654991 2.028884 -0.649514
-4.373285 3.343515 0.481623
-2.941911 2.250227 -0.586629
-4.363660 3.339250 0.674669
-2.963250 2.268650 -0.458229
-4.365908 3.344067 0.871027
-4.355311 3.337496 -0.480054
-2.949400 2.261187 0.722403
-4.364459 3.347606 -0.288266
-2.972972 2.281370 0.865162
-4.358766 3.346337 -0.095918
-2.947727 2.264094 0.995936
-2.432529 1.869245 -0.822009
-0.000000 0.000000 0.000000
-2.534862 1.949597 -0.738289
-0.000000 0.000000 0.000000
-2.669583 2.055021 -0.654856
-0.000000 0.000000 0.000000
-2.941813 2.266575 -0.588194
-4.329929 3.337543 0.671256
-2.958457 2.281405 -0.458716
-4.340168 3.348380 0.868211
-4.324780 3.337976 -0.477962
-2.957103 2.283371 0.726219
-4.324443 3.340652 -0.286382
-2.969741 2.295147 0.866511
-4.344115 3.358801 -0.095849
-2.959844 2.289511 1.002665
-2.441432 1.889336 -0.827186
-0.000000 0.000000 0.000000
-2.528212 1.958213 -0.738289
-0.000000 0.000000 0.000000
-2.679642 2.077326 -0.659054
-0.000000 0.000000 0.000000
-2.951250 2.289894 -0.591635
-4.309137 3.344956 0.669794
-2.953811 2.293895 -0.459204
-4.310029 3.348588 0.864457
-4.316541 3.355121 -0.478311
-2.963263 2.304269 0.729654
-4.306743 3.350445 -0.285964
-2.963450 2.306438 0.866961
-4.310569 3.356366 -0.095360
-2.970324 2.313817 1.008877
-2.444130 1.904759 -0.830291
-0.000000 0.000000 0.000000
-2.529194 1.972826 -0.740539
-0.000000 0.000000 0.000000
-2.842734 2.219390 -0.701032
-0.000000 0.000000 0.000000
-2.955816 2.309752 -0.594138
-4.280396 3.346318 0.667113
-2.961523 2.316293 -0.461641
-4.285996 3.353710 0.861954
-4.279812 3.350377 -0.475522
-2.959902 2.318149 0.730798
-4.280946 3.354278 -0.285022
-2.970756 2.328742 0.871460
-4.276835 3.354069 -0.094871
-2.965281 2.326540 1.009912
-2.445064 1.919244 -0.832880
-4.229030 3.321051 0.093859
-2.529954 1.987662 -0.742788
-0.000000 0.000000 0.000000
-2.939912 2.311821 -0.726982
-4.265496 3.355710 0.474824
-2.957049 2.327386 -0.596015
-4.264011 3.357555 0.666382
-2.969013 2.338901 -0.464078
-4.250992 3.350309 0.857261
-4.249316 3.350492 -0.473430
-2.974913 2.346706 0.736523
-4.266076 3.366726 -0.284812
-2.977904 2.351174 0.875959
-4.258824 3.364020 -0.094732
-2.963205 2.341668 1.011982
-2.450474 1.937352 -0.837021
-4.223667 3.340778 0.093999
-2.521451 1.995300 -0.742338
-4.260874 3.373307 0.284812
-2.959475 2.344075 -0.733851
-4.222433 3.345947 0.471338
-2.955022 2.342699 -0.597267
-4.242804 3.365179 0.664919
-2.971613 2.358017 -0.465785
-4.215899 3.346912 0.852568
-4.218690 3.350666 -0.471338
-2.963488 2.354811 0.735759
-4.230625 3.363232 -0.283242
-2.981713 2.371469 0.879559
-4.231149 3.366739 -0.094383
-2.966912 2.361865 1.016124
-2.467705 1.965363 -0.845303
-4.186664 3.335931 0.093440
-2.515819 2.005523 -0.742788
-4.230039 3.373587 0.283556
-2.969485 2.369342 -0.738431
-4.210435 3.361033 0.471338
-2.958970 2.363119 -0.599770
-4.222982 3.374143 0.663700
-2.969359 2.373592 -0.466760
-4.199269 3.358274 0.851629
-4.200451 3.360760 -0.470641
-2.961174 2.370307 0.737286
-4.195180 3.359621 -0.281672
-2.982334 2.389433 0.882258
-4.212835 3.376853 -0.094243
-2.970499 2.382134 1.020265
-2.480246 1.989896 -0.852032
-4.173160 3.349614 0.093405
-2.523844 2.026686 -0.747287
-4.236682 3.403641 0.284812
-2.976343 2.392186 -0.742247
-4.198474 3.375962 0.471338
-2.965965 2.385976 -0.602898
-4.195548 3.376624 0.661263
-2.965591 2.387807 -0.467491
-4.190469 3.375550 0.852255
-4.179276 3.368038 -0.469595
-2.966573 2.391799 0.740721
-4.180244 3.371827 -0.281463
-2.980002 2.404773 0.884058
-4.194761 3.386559 -0.094103
-2.975678 2.403429 1.024923
-2.652094 2.143029 -0.913631
-4.152112 3.356618 0.093196
-2.533422 2.048963 -0.752236
-4.224775 3.418409 0.284812
-2.971026 2.405031 -0.743010
-4.180471 3.385581 0.470641
-2.971432 2.407506 -0.605714
-4.162146 3.373748 0.657851
-2.972656 2.410647 -0.469928
-4.151048 3.367755 0.846623
-4.142743 3.362516 -0.466806
-2.978018 2.418229 0.745682
-4.156047 3.376324 -0.280625
-2.992761 2.432368 0.890356
-4.161193 3.383519 -0.093615
-2.974764 2.419897 1.027512
-2.956256 2.405913 -1.021300
-4.123330 3.357180 0.092812
-2.550451 2.077458 -0.759435
-0.000000 0.000000 0.000000
-2.971796 2.422766 -0.745300
-4.131665 3.369817 0.466458
-2.976864 2.429007 -0.608530
-4.141247 3.380566 0.656388
-2.972016 2.427158 -0.471147
-4.130255 3.374522 0.844746
-4.121908 3.369165 -0.465760
-2.975784 2.433402 0.747208
-4.133637 3.381687 -0.279893
-2.993474 2.449993 0.893056
-4.143428 3.392640 -0.093475
-2.967992 2.431247 1.028029
-2.973452 2.436777 -1.030100
-4.091777 3.354712 0.092358
-2.556927 2.097249 -0.763484
-4.170285 3.422046 0.282719
-2.981742 2.447815 -0.749879
-4.107855 3.373743 0.465063
-2.964001 2.435362 -0.607591
-4.099047 3.369430 0.651514
-2.985204 2.454911 -0.474559
-4.112644 3.383539 0.843495
-4.098111 3.373045 -0.464366
-2.973547 2.448508 0.748734
-4.100523 3.377957 -0.278427
-3.000156 2.472561 0.897555
-4.113343 3.391456 -0.093056
-2.979074 2.457315 1.034759
-2.975571 2.455489 -1.033723
-4.088047 3.374984 0.092533
-2.680493 2.213904 -0.802625
-4.103187 3.390420 0.278951
-2.983986 2.466704 -0.752551
-4.090208 3.382625 0.464366
-2.973959 2.460546 -0.611346
-4.087556 3.383361 0.651514
-2.976831 2.465057 -0.474559
-4.082851 3.382394 0.839740
-4.083540 3.384430 -0.464017
-2.980310 2.471145 0.752551
-4.076705 3.381692 -0.277590
-2.993223 2.484002 0.898005
-4.092545 3.397772 -0.092847
-2.988527 2.482252 1.040970
-2.985027 2.480418 -1.039935
-4.059621 3.374816 0.092149
-2.966607 2.467247 -0.890806
-4.119260 3.427359 0.280835
-2.987645 2.486894 -0.755604
-4.069485 3.388876 0.463320
-2.980745 2.483298 -0.614475
-4.076018 3.397253 0.651514
-2.971474 2.477716 -0.475047
-4.057664 3.384882 0.836924
-4.059760 3.388096 -0.462623
-2.989967 2.496373 0.757130
-4.057507 3.389145 -0.277067
-2.987743 2.496674 0.898904
-4.062547 3.396290 -0.092428
-2.994880 2.504802 1.046147
-2.983104 2.497803 -1.042523
-4.051509 3.393900 0.092253
-2.984186 2.500924 -0.898904
-0.000000 0.000000 0.000000
-2.985758 2.504461 -0.757512
-0.000000 0.000000 0.000000
-2.987965 2.508534 -0.617916
-4.025109 3.380761 0.645420
-2.980284 2.504303 -0.477972
-4.025110 3.383758 0.832857
-4.033109 3.391985 -0.461054
-2.996952 2.521657 0.761328
-4.032315 3.394322 -0.276229
-2.990100 2.518121 0.902504
-4.025045 3.391204 -0.091869
-2.988208 2.518757 1.047182
-2.971413 2.505710 -1.041488
-4.009069 3.382233 0.091555
-2.988841 2.522638 -0.902954
-0.000000 0.000000 0.000000
-2.987496 2.523736 -0.760183
-0.000000 0.000000 0.000000
-2.986733 2.525326 -0.619480
-4.013284 3.394791 0.645420
-2.991223 2.531361 -0.481140
-4.016289 3.400340 0.833483
-3.993879 3.382863 -0.457916
-2.992625 2.535911 0.762473
-4.014348 3.403210 -0.275810
-3.006557 2.549971 0.910152
-4.010134 3.402646 -0.091800
-2.983816 2.532923 1.048735
-2.980319 2.531073 -1.047699
-4.009467 3.406521 0.091835
-2.990466 2.541825 -0.906103
-0.000000 0.000000 0.000000
-2.999714 2.551829 -0.765526
-0.000000 0.000000 0.000000
-2.988594 2.544505 -0.621671
-3.983535 3.393027 0.642495
-2.996189 2.553115 -0.483334
-3.986691 3.398568 0.829728
-3.982416 3.396349 -0.457916
-2.996009 2.556178 0.765526
-3.980104 3.397228 -0.274240
-3.012820 2.572680 0.914651
-3.989631 3.408219 -0.091590
-2.997401 2.561663 1.056499
-2.983655 2.550986 -1.051841
-3.976874 3.401601 0.091346
-2.986462 2.555529 -0.907453
-0.000000 0.000000 0.000000
-3.006147 2.574533 -0.769342
-0.000000 0.000000 0.000000
-2.984639 2.558258 -0.622609
-3.957192 3.393297 0.640058
-2.998253 2.572084 -0.485040
-3.960409 3.398905 0.826600
-3.954503 3.395260 -0.455999
-2.999430 2.576333 0.768579
-3.958213 3.401296 -0.273508
-3.011661 2.589009 0.916900
-3.963146 3.408392 -0.091241
-3.004999 2.585448 1.062193
-2.989821 2.573468 -1.057017
-3.959455 3.409615 0.091206
-2.991175 2.576963 -0.911502
-0.000000 0.000000 0.000000
-3.000397 2.587247 -0.770105
-3.952508 3.409796 0.456696
-2.998319 2.587794 -0.627302
-3.941020 3.402960 0.639327
-2.989369 2.582404 -0.485040
-3.942635 3.407434 0.825348
-0.000000 0.000000 -0.000000
-3.008222 2.602216 0.773158
-3.929629 3.400802 -0.272356
-3.003980 2.600896 0.917350
-3.944991 3.417183 -0.091102
-3.004531 2.603725 1.065299
-2.989352 2.591742 -1.060123
-3.355070 2.910131 0.077524
-2.990767 2.595312 -0.914201
-0.000000 0.000000 0.000000
-3.000015 2.605690 -0.772395
-3.459027 3.005727 0.400916
-3.005439 2.612761 -0.630744
-3.412066 2.967600 0.555237
-2.998081 2.608719 -0.487965
-3.310610 2.881961 0.695195
-3.392561 2.954635 -0.393595
-3.012214 2.624570 0.776593
-3.322745 2.896446 -0.231011
-3.010810 2.625716 0.922299
-3.348103 2.921186 -0.077558
-3.003928 2.622081 1.068405
-2.982970 2.604963 -1.061158
-3.317546 2.898416 0.076895
-2.997630 2.620071 -0.919150
-3.318254 2.901589 0.231011
-3.006983 2.630562 -0.776593
-3.313398 2.899895 0.385228
-2.996158 2.623400 -0.630744
-3.319414 2.907718 0.541831
-3.000786 2.629766 -0.489915
-3.316758 2.907951 0.698636
-3.323714 2.915332 -0.386797
-3.020671 2.650690 0.781172
-3.329061 2.922593 -0.232162
-3.016225 2.649119 0.926798
-3.328840 2.924972 -0.077349
-3.000547 2.637669 1.070476
-2.994169 2.633220 -1.068405
-3.322421 2.923188 0.077244
-2.994317 2.635669 -0.920950
-3.323095 2.926354 0.232058
-3.006621 2.648829 -0.778882
-3.309234 2.916713 0.385926
-3.000317 2.645600 -0.633560
-3.312221 2.921914 0.542319
-3.004983 2.652046 -0.492108
-3.319914 2.931278 0.701452
-3.292612 2.908450 -0.384357
-3.011400 2.661218 0.781172
-3.336795 2.950071 -0.233418
-3.018637 2.669960 0.930398
-3.333586 2.949826 -0.077698
-2.998554 2.654529 1.073064
-2.996528 2.653903 -1.072546
-3.324171 2.945377 0.077524
-2.993849 2.653861 -0.923649
-3.332286 2.955163 0.233418
-3.012043 2.672337 -0.782698
-3.321384 2.948085 0.388540
-3.004357 2.667862 -0.636375
-3.316842 2.946642 0.544756
-3.001642 2.667795 -0.493083
-3.324424 2.955975 0.704581
-3.322632 2.955679 -0.389063
-3.022624 2.689986 0.786515
-3.324985 2.960372 -0.233314
-3.023850 2.693443 0.934897
-3.342677 2.978740 -0.078152
-3.006573 2.680407 1.079275
-3.007430 2.682349 -1.079793
-3.337742 2.978264 0.078082
-2.997650 2.675975 -0.927698
-3.329398 2.973429 0.233942
-3.007088 2.686759 -0.783843
-3.327413 2.974267 0.390458
-3.008279 2.690184 -0.639191
-3.319851 2.970114 0.546950
-3.001187 2.686199 -0.494546
-3.331745 2.983374 0.708335
-3.328619 2.981883 -0.390981
-3.026374 2.712313 0.789949
-3.333963 2.989294 -0.234674
-3.015881 2.705283 0.935346
-3.347141 3.003745 -0.078501
-3.013011 2.705082 1.084969
-3.003798 2.697994 -1.081864
-3.339241 3.000571 0.078361
-3.007161 2.703327 -0.933547
-3.327958 2.992992 0.234570
-3.007967 2.706366 -0.786515
-3.325977 2.993771 0.391504
-3.015105 2.715111 -0.642633
-3.324325 2.994845 0.549387
-3.006655 2.709819 -0.496983
-3.318524 2.992177 0.707710
-3.300600 2.977289 -0.388889
-3.034541 2.738463 0.794529
-3.329634 3.006049 -0.235093
-3.018181 2.726030 0.938946
-3.339834 3.017837 -0.078571
-3.016670 2.726997 1.089628
-3.003195 2.715976 -1.084969
-3.324561 3.007894 0.078257
-3.018170 2.731854 -0.939846
-3.317752 3.004301 0.234570
-3.007468 2.724496 -0.788804
-3.306911 2.997045 0.390458
-3.011701 2.730664 -0.643884
-3.317054 3.008809 0.549874
-3.012116 2.733376 -0.499421
-3.311246 3.006110 0.708335
-3.277174 2.976449 -0.387320
-3.032469 2.755376 0.796437
-3.322340 3.020051 -0.235302
-3.026187 2.752019 0.944345
-3.331022 3.030532 -0.078606
-3.017373 2.746350 1.093252
-3.011075 2.741789 -1.091181
-3.314272 3.019227 0.078257
-3.015996 2.748739 -0.942095
-3.322168 3.029140 0.235616
-3.021266 2.756016 -0.794910
-3.300943 3.012492 0.390981
-3.008046 2.746422 -0.645136
-3.319755 3.032383 0.552068
-3.018675 2.758604 -0.502102
-3.325484 3.040345 0.713654
-3.231415 2.955669 -0.383137
-3.031432 2.773996 0.798726
-3.336689 3.054701 -0.237082
-3.043716 2.787739 0.952893
-3.339391 3.059921 -0.079059
-3.018950 2.767539 1.097393
-3.012636 2.762991 -1.095322
-3.338811 3.063513 0.079094
-3.013320 2.766101 -0.944345
-3.334845 3.062622 0.237291
-3.028734 2.782748 -0.799490
-3.326815 3.057991 0.395338
-3.018556 2.775887 -0.649516
-3.322032 3.056337 0.554262
-3.019010 2.778797 -0.503808
-3.337835 3.073633 0.718660
-3.087473 2.844365 -0.367274
-3.030149 2.792808 0.801016
-3.343358 3.082867 -0.238338
-3.035154 2.799932 0.953343
-3.371037 3.111180 -0.080072
-3.028899 2.796670 1.104640
-3.024016 2.793415 -1.103087
-3.351360 3.097118 0.079653
-3.014912 2.787383 -0.947944
-3.338629 3.087987 0.238338
-3.031849 2.805435 -0.802924
-3.342337 3.094056 0.398476
-3.026179 2.802579 -0.653270
-3.336065 3.090886 0.558405
-3.020939 2.800114 -0.505758
-3.345949 3.102691 0.722727
-3.062982 2.841508 -0.365531
-3.044937 2.825973 0.807504
-3.467366 3.219398 -0.247968
-3.038366 2.822281 0.957392
-3.376474 3.137682 -0.080456
-3.040556 2.826726 1.112404
-3.022979 2.811585 -1.106193
-3.375935 3.141198 0.080490
-3.022525 2.813561 -0.953343
-3.360256 3.129277 0.240641
-3.026593 2.819752 -0.804069
-3.355107 3.127149 0.401265
-3.035405 2.830376 -0.657338
-3.351654 3.126596 0.562793
-3.021550 2.819860 -0.507464
-3.344033 3.122149 0.724604
-3.147935 2.940316 -0.376861
-3.049646 2.849724 0.811320
-3.646061 3.408493 -0.261575
-3.041552 2.844586 0.961441
-3.466530 3.243425 -0.082864
-3.033739 2.839698 1.113440
-3.023264 2.831100 -1.109816
-3.378342 3.164993 0.080805
-3.029963 2.839856 -0.958741
-3.374303 3.163975 0.242420
-3.036963 2.848907 -0.809412
-3.351623 3.145458 0.402137
-3.035743 2.850254 -0.659528
-3.359684 3.155781 0.565961
-3.030618 2.847931 -0.510633
-3.346187 3.145853 0.727420
-3.137749 2.951183 -0.376861
-3.048337 2.868341 0.813610
-3.522236 3.315707 -0.253515
-3.047256 2.869832 0.966390
-3.610955 3.402197 -0.086599
-3.032258 2.858205 1.116545
-3.024607 2.852239 -1.113957
-3.373091 3.182255 0.080944
-3.031369 2.861116 -0.962341
-3.386473 3.197673 0.244095
-3.038417 2.870276 -0.812465
-3.365240 3.180402 0.405100
-3.031516 2.866261 -0.660779
-3.361627 3.179766 0.568155
-3.035077 2.872137 -0.513070
-3.346662 3.168379 0.729923
-3.102837 2.938827 -0.373898
-3.049706 2.889767 0.816663
-3.555575 3.370578 -0.256760
-3.051360 2.893862 0.970889
-3.593255 3.409276 -0.086459
-3.039076 2.884732 1.122757
-3.039848 2.886725 -1.123275
-3.375010 3.206406 0.081258
-3.024189 2.874365 -0.963240
-3.375290 3.209475 0.244095
-3.045449 2.897103 -0.817044
-3.357004 3.194877 0.405449
-3.037230 2.891809 -0.664221
-3.343320 3.184635 0.566936
-3.033655 2.890930 -0.514532
-3.342730 3.186857 0.731488
-3.052191 2.911136 -0.369017
-3.048123 2.908527 0.818952
-3.579905 3.417447 -0.259377
-3.053923 2.916608 0.974938
-3.449761 3.296088 -0.083283
-3.052728 2.918015 1.131557
-3.040922 2.908000 -1.127416
-3.369577 3.223697 0.081398
-3.031031 2.901074 -0.968639
-3.349641 3.207424 0.243048
-3.039571 2.911790 -0.818189
-3.354462 3.214847 0.406494
-3.041376 2.916065 -0.667349
-3.335048 3.199034 0.567424
-3.030707 2.908375 -0.515751
-3.323036 3.190297 0.729610
-3.065001 2.943855 -0.371806
-3.056355 2.936833 0.823913
-3.459965 3.326111 -0.251527
-3.049342 2.932654 0.976737
-3.371949 3.244332 -0.081677
-3.045308 2.931333 1.132592
-3.041885 2.929317 -1.131557
-3.348223 3.225727 0.081154
-3.047544 2.937331 -0.977187
-3.342738 3.223256 0.243362
-3.039279 2.931924 -0.820860
-3.336052 3.219619 0.405623
-3.046810 2.941757 -0.670791
-3.343850 3.229964 0.570836
-3.037666 2.935489 -0.518676
-3.296257 3.186774 0.726169
-3.071892 2.971158 -0.373898
-3.065837 2.966596 0.829256
-3.345013 3.238148 -0.243990
-3.058685 2.962261 0.983036
-3.329008 3.225470 -0.080909
-3.060025 2.966148 1.141910
-3.041349 2.949332 -1.135180
-3.349860 3.249927 0.081468
-3.049858 2.960166 -0.981236
-3.357258 3.259949 0.245246
-3.045924 2.958931 -0.825440
-3.347653 3.253462 0.408412
-3.046437 2.962013 -0.672981
-3.372398 3.280372 0.577661
-3.047317 2.965457 -0.522088
-3.262467 3.176213 0.721163
-3.077202 2.997154 -0.375816
-3.068118 2.989611 0.832690
-3.369443 3.284659 -0.246607
-3.062277 2.986525 0.987535
-3.372118 3.290137 -0.082236
-3.049653 2.976811 1.141910
-3.044857 2.973427 -1.140357
-3.398571 3.320292 0.082934
-3.047868 2.978967 -0.983936
-3.407263 3.331691 0.249747
-3.049611 2.983274 -0.829256
-3.381842 3.309722 0.413990
-3.045959 2.982303 -0.675171
-3.434668 3.364356 0.590335
-3.052543 2.991359 -0.524769
-3.169547 3.107374 0.703016
-3.063877 3.005087 -0.375467
-3.060466 3.003053 0.833454
-3.444899 3.381749 -0.252992
-3.068518 3.013582 0.992934
-3.436212 3.376167 -0.084086
-3.061287 3.009106 1.150192
-3.049611 2.998937 -1.146051
-3.491021 3.434511 0.085482
-3.045784 2.997790 -0.986635
-3.495233 3.441657 0.257074
-3.062956 3.017323 -0.835743
-3.486631 3.436186 0.428283
-3.049597 3.006786 -0.678300
-3.496393 3.448814 0.603010
-3.064690 3.024306 -0.528669
-3.061686 3.022660 0.681429
-3.080301 3.042365 -0.378779
-3.068120 3.031656 0.838415
-3.359213 3.320739 -0.247549
-3.066293 3.032497 0.995633
-3.411612 3.375483 -0.083772
-3.063121 3.032005 1.154851
-3.054751 3.023984 -1.151745
-3.219601 3.188564 0.079094
-3.049670 3.021589 -0.991134
-3.217125 3.188894 0.237396
-3.061297 3.035758 -0.838033
-3.220623 3.195148 0.396907
-3.059238 3.036364 -0.682680
-3.206029 3.183447 0.554749
-3.065911 3.045644 -0.530619
-3.064256 3.045328 0.684244
-3.087150 3.069420 -0.380871
-3.076144 3.059813 0.843376
-3.195285 3.179708 -0.236245
-3.070030 3.056397 1.000132
-3.199210 3.186393 -0.078815
-3.073577 3.062599 1.162615
-3.056491 3.046903 -1.156403
-3.191460 3.182838 0.078675
-3.059797 3.052862 -0.997883
-3.184771 3.178940 0.235826
-3.059017 3.054749 -0.840323
-3.186898 3.183840 0.394118
-3.069578 3.067971 -0.687373
-3.185071 3.184793 0.553043
-3.056664 3.057732 -0.530863
-3.057795 3.060198 0.685183
-3.073601 3.077359 -0.380522
-3.082090 3.087204 0.847955
-3.178523 3.185187 -0.235826
-3.075858 3.083652 1.005531
-3.173949 3.183380 -0.078466
-3.072414 3.082888 1.166239
-3.056743 3.068503 -1.160545
-3.173276 3.186874 0.078501
-3.062869 3.077337 -1.002382
-3.172246 3.188621 0.235721
-3.064947 3.082113 -0.844902
-3.161719 3.180814 0.392375
-3.069988 3.089878 -0.689876
-3.172536 3.194483 0.552799
-3.068349 3.090924 -0.534763
-3.062400 3.086277 0.688625
-3.072662 3.097971 -0.381742
-3.083735 3.110492 0.851390
-3.156138 3.184913 -0.234988
-3.081532 3.110984 1.010930
-3.148748 3.180230 -0.078117
-3.071146 3.103206 1.169862
-3.059600 3.092888 -1.165721
-3.125575 3.160961 0.077593
-3.065807 3.101869 -1.006881
-3.144252 3.182625 0.234465
-3.072103 3.110953 -0.849863
-3.121204 3.162054 0.388715
-3.063346 3.104794 -0.690815
-3.127912 3.171617 0.546950
-3.070083 3.114339 -0.536956
-3.062700 3.108205 0.691127
-3.078606 3.125711 -0.383834
-3.085254 3.133829 0.854824
-3.100173 3.150357 -0.231639
-3.095252 3.146728 1.019028
-3.112392 3.165535 -0.077489
-3.072482 3.126308 1.174521
-3.065031 3.120087 -1.171933
-3.092106 3.149022 0.077035
-3.061786 3.119506 -1.009130
-3.102352 3.162216 0.232162
-3.080470 3.141282 -0.855206
-3.100385 3.162970 0.387494
-3.069079 3.132400 -0.694569
-3.083487 3.148479 0.541100
-3.070302 3.136384 -0.538906
-3.068410 3.135819 0.694882
-3.088574 3.157804 -0.386449
-3.090766 3.161425 0.859404
-3.090553 3.162587 -0.231744
-3.092419 3.165878 1.021728
-3.094338 3.169226 -0.077314
-3.091235 3.167430 1.185909
-3.079752 3.157041 -1.181768
-3.082491 3.161228 0.077070
-3.068561 3.148316 -1.014979
-3.088507 3.170165 0.231953
-3.080443 3.163268 -0.858259
-3.082376 3.166635 0.386623
-3.076034 3.161499 -0.698636
-3.076630 3.163492 0.541831
-3.074556 3.162740 -0.541587
-3.075341 3.164928 0.698949
-3.092802 3.184287 -0.388366
-3.094755 3.187689 0.863602
-3.082277 3.176223 -0.231953
-3.089490 3.185046 1.024427
-3.091609 3.188622 -0.077524
-3.082849 3.180975 1.186944
-3.082155 3.181648 -1.186944
-3.083974 3.184882 0.077384
-3.080627 3.182779 -1.022627
-3.083030 3.186618 0.232372
-3.077641 3.182402 -0.860549
-3.071391 3.177291 0.386623
-3.084301 3.192005 -0.703016
-3.069827 3.178379 0.542562
-3.074666 3.184744 -0.543537
-3.068546 3.179758 0.699888
-3.085992 3.199198 -0.388889
-3.109692 3.225140 0.870852
-3.071379 3.186762 -0.231953
-3.093452 3.211030 1.029376
-3.075155 3.193397 -0.077384
-3.096102 3.216519 1.196262
-3.082024 3.203256 -1.191085
-3.078662 3.201124 0.077524
-3.091386 3.215723 -1.029826
-3.079086 3.204293 0.232895
-3.089912 3.216928 -0.867036
-3.064699 3.192038 0.387146
-3.088465 3.218161 -0.706458
-3.079605 3.210296 0.546218
-3.089914 3.222414 -0.548168
-3.067274 3.200166 0.702078
-3.087491 3.222630 -0.390458
-3.104129 3.241377 0.872379
-3.086757 3.224609 -0.233942
-3.104062 3.244068 1.036574
-3.083620 3.224077 -0.077873
-3.094482 3.236812 1.199885
-3.083116 3.226297 -1.195744
-3.087051 3.231861 0.078012
-3.089773 3.236159 -1.032975
-3.099772 3.248086 0.235302
-3.092356 3.241766 -0.870852
-3.082515 3.232897 0.390806
-3.082734 3.234575 -0.707710
-3.090323 3.243990 0.550118
-3.095073 3.250431 -0.551093
-3.087373 3.243796 0.709274
-3.089885 3.247890 -0.392201
-3.099454 3.259407 0.874287
-3.094605 3.255766 -0.235407
-3.107306 3.270593 1.041523
-3.098298 3.262572 -0.078536
-3.092227 3.257637 1.203509
-3.074212 3.240110 -1.196779
-3.097485 3.266101 0.078571
-3.072812 3.241537 -1.031176
-3.096373 3.267855 0.235930
-3.087487 3.259937 -0.872760
-3.102432 3.277184 0.394816
-3.079288 3.254193 -0.709587
-3.088245 3.265121 0.551824
-3.084787 3.262927 -0.551337
-3.101525 3.282101 0.715218
-3.093294 3.274857 -0.394118
-3.103945 3.287606 0.878866
-3.084307 3.268269 -0.235512
-3.110293 3.297283 1.046472
-3.101695 3.289641 -0.078920
-3.107051 3.296798 1.213861
-3.046704 3.234215 -1.190568
-3.092687 3.284392 0.078745
-3.047944 3.238220 -1.026677
-3.087559 3.281670 0.236140
-3.055843 3.249309 -0.867036
-3.082768 3.279300 0.393770
-3.054418 3.250493 -0.706458
-3.094586 3.294607 0.554993
-3.049064 3.247491 -0.546950
-3.101062 3.304245 0.717721
-3.068463 3.270869 -0.392375
-3.112900 3.319616 0.884591
-3.065042 3.269937 -0.234884
-3.104509 3.313419 1.048272
-3.074258 3.282496 -0.078501
-3.110570 3.322647 1.219555
-3.014842 3.221731 -1.182285
-3.062654 3.274184 0.078257
-3.031866 3.242615 -1.024877
-3.050748 3.264167 0.234151
-3.030308 3.243644 -0.862838
-3.063718 3.280768 0.392724
-3.038231 3.254828 -0.705207
-3.102603 3.325171 0.558405
-3.034216 3.253229 -0.546218
-3.094129 3.318845 0.718660
-3.046733 3.269365 -0.390981
-3.115257 3.344286 0.888407
-3.041932 3.266928 -0.233942
-3.114748 3.346520 1.055470
-3.038838 3.266319 -0.077873
-3.115322 3.349920 1.225767
-2.987043 3.213317 -1.175556
-3.039494 3.271171 0.077942
-3.010416 3.241294 -1.021278
-3.039800 3.274365 0.234151
-3.011381 3.245172 -0.860549
-3.036383 3.273547 0.390632
-3.013776 3.250597 -0.702078
-3.107497 3.353149 0.561330
-3.020429 3.260625 -0.545731
-3.108279 3.356930 0.724604
-3.024690 3.268084 -0.389586
-3.122412 3.375146 0.893749
-3.027941 3.274461 -0.233732
-3.125644 3.381598 1.063119
-3.024776 3.273903 -0.077803
-3.112821 3.370675 1.229390
-2.962705 3.209529 -1.170380
-3.013140 3.265595 0.077558
-2.992477 3.244620 -1.019028
-3.025644 3.282019 0.233942
-2.996044 3.251333 -0.859404
-3.015489 3.273868 0.389412
-2.990370 3.248018 -0.699262
-3.106527 3.375661 0.563280
-3.003653 3.265304 -0.544756
-3.105901 3.377938 0.726795
-3.002478 3.266887 -0.388192
-3.121237 3.397591 0.896802
-3.005686 3.273242 -0.232895
-3.130951 3.411152 1.068967
-3.007922 3.278548 -0.077663
-3.121927 3.404301 1.237673
-2.950178 3.218427 -1.169862
-3.000354 3.274634 0.077524
-2.963988 3.236396 -1.013180
-3.000630 3.277878 0.232895
-2.983280 3.260388 -0.859022
-2.998574 3.278575 0.388715
-2.974909 3.254160 -0.698323
-3.102630 3.395395 0.564743
-2.981384 3.264174 -0.542806
-3.117898 3.415170 0.732426
-2.980133 3.265737 -0.386797
-3.126353 3.427509 0.901763
-2.979225 3.267675 -0.231744
-3.137159 3.442446 1.075266
-2.990822 3.283343 -0.077524
-3.125353 3.432573 1.243884
-2.939944 3.230390 -1.170380
-2.981890 3.277952 0.077349
-2.952389 3.246980 -1.013180
-2.975449 3.273812 0.231848
-2.963674 3.262322 -0.856732
-2.980128 3.281908 0.387843
-2.960591 3.261858 -0.697698
-3.111803 3.429998 0.568642
-2.960351 3.264526 -0.541100
-3.118925 3.440940 0.735555
-2.976456 3.285238 -0.387843
-3.129884 3.456135 0.906343
-2.964834 3.275352 -0.231534
-3.132667 3.462319 1.077965
-2.969666 3.283641 -0.077279
-3.136370 3.469529 1.253202
-2.911530 3.222255 -1.163650
-2.968856 3.287068 0.077314
-2.933024 3.248748 -1.010480
-2.958526 3.278361 0.231430
-2.942992 3.262507 -0.854061
-2.960630 3.283428 0.386797
-2.945255 3.267738 -0.696759
-3.122493 3.465827 0.572786
-2.941110 3.265861 -0.539637
-3.111067 3.456024 0.736493
-2.950563 3.279089 -0.385926
-3.141754 3.493024 0.913212
-2.945729 3.276447 -0.230906
-3.134024 3.487336 1.082464
-2.947962 3.281666 -0.077000
-3.137697 3.494336 1.258378
-2.890506 3.220390 -1.159509
-2.948592 3.286476 0.077070
-2.919632 3.255555 -1.009580
-2.944972 3.285179 0.231220
-2.928227 3.267862 -0.852916
-2.943079 3.285807 0.385926
-2.922544 3.264242 -0.693943
-3.124221 3.490954 0.575223
-2.930264 3.275596 -0.539637
-3.120657 3.489882 0.741499
-2.926395 3.274001 -0.384183
-3.143234 3.518064 0.917028
-2.934848 3.286198 -0.230906
-3.141909 3.519516 1.089213
-2.934401 3.288440 -0.076930
-3.132522 3.511930 1.260966
-2.873383 3.222748 -1.156921
-2.924301 3.281371 0.076721
-2.898308 3.253705 -1.005981
-2.931190 3.292136 0.231011
-2.907952 3.267543 -0.850245
-2.923862 3.286937 0.384880
-2.896837 3.258058 -0.690502
-3.129236 3.521060 0.578392
-2.909584 3.275416 -0.537931
-3.130676 3.525933 0.746818
-2.913483 3.282833 -0.384008
-3.143732 3.543906 0.920844
-2.909820 3.281733 -0.229860
-3.151192 3.555596 1.096861
-2.913190 3.288568 -0.076686
-3.138916 3.545015 1.268731
-2.855150 3.226025 -1.154333
-2.906955 3.286076 0.076581
-2.876037 3.252627 -1.002382
-2.908522 3.290885 0.230174
-2.893356 3.275237 -0.849482
-2.910476 3.296138 0.384705
-2.882261 3.265691 -0.689876
-3.124189 3.541437 0.579854
-2.888369 3.275635 -0.536225
-3.138630 3.561095 0.751824
-2.896163 3.287509 -0.383311
-3.147589 3.574559 0.925805
-2.888536 3.281881 -0.229127
-3.148436 3.578827 1.100461
-2.899797 3.297721 -0.076651
-3.143757 3.576811 1.275978
-2.845856 3.239370 -1.155368
-2.894963 3.296645 0.076581
-2.864238 3.263021 -1.002382
-2.886119 3.289323 0.229336
-2.871263 3.273760 -0.846429
-2.886916 3.292983 0.383137
-2.868098 3.272886 -0.689250
-3.128734 3.571801 0.583023
-2.863840 3.270763 -0.533788
-3.144472 3.592771 0.756204
-2.882190 3.294474 -0.382962
-3.154712 3.607488 0.931530
-2.869463 3.282671 -0.228499
-3.151703 3.607063 1.105859
-2.876862 3.293890 -0.076337
-3.159751 3.619301 1.287366
-2.823667 3.235690 -1.150709
-2.878757 3.300199 0.076442
-2.845718 3.263688 -0.999682
-2.869946 3.292853 0.228917
-2.855233 3.277342 -0.844902
-2.873363 3.299534 0.382788
-2.852041 3.276420 -0.687999
-3.137721 3.606118 0.586923
-2.851676 3.278744 -0.533544
-3.140317 3.612124 0.758081
-2.855566 3.285967 -0.380871
-3.165907 3.644608 0.938399
-2.853323 3.286136 -0.228080
-3.157607 3.638098 1.112158
-2.852819 3.288307 -0.075988
-3.154060 3.637056 1.289954
-2.801533 3.231898 -1.146051
-2.859940 3.300660 0.076232
-2.833604 3.271634 -0.999233
-2.853782 3.296312 0.228499
-2.827648 3.267493 -0.839941
-2.850674 3.295482 0.381219
-2.830824 3.273905 -0.685496
-3.149111 3.643536 0.591310
-2.836894 3.283676 -0.532813
-3.148979 3.646438 0.763087
-2.832937 3.281844 -0.379302
-3.164064 3.666978 0.941452
-2.841106 3.294067 -0.227975
-3.168430 3.675116 1.120256
-2.839288 3.294720 -0.075918
-3.160894 3.669451 1.297719
-2.792061 3.242634 -1.146568
-2.835935 3.294969 0.075883
-2.818926 3.276581 -0.997883
-2.840231 3.302729 0.228289
-2.816797 3.276852 -0.839941
-2.826746 3.289806 0.379476
-2.810942 3.272785 -0.683306
-3.151235 3.670527 0.593991
-2.825989 3.293065 -0.532813
-3.151017 3.673353 0.766529
-2.818148 3.286683 -0.378779
-3.163385 3.690866 0.944886
-2.819771 3.291337 -0.227138
-3.173971 3.706325 1.126555
-2.817944 3.291964 -0.075639
-3.162524 3.696059 1.303413
-2.772748 3.246471 -1.143980
-2.818772 3.301780 0.075778
-2.791800 3.271595 -0.992934
-2.819119 3.305032 0.227661
-2.798453 3.282218 -0.838415
-2.812135 3.299687 0.379302
-2.788707 3.273608 -0.681116
-3.147917 3.696870 0.596185
-2.802310 3.292412 -0.530863
-3.157826 3.711704 0.771848
-2.802170 3.295087 -0.378430
-3.166123 3.724666 0.950229
-2.790801 3.284549 -0.225882
-3.178988 3.743026 1.133753
-2.804454 3.303464 -0.075639
-3.167358 3.732550 1.311695
-2.760434 3.254416 -1.143463
-2.804932 3.308303 0.075709
-2.774349 3.273644 -0.990684
-2.796235 3.300892 0.226719
-2.782191 3.285730 -0.836888
-2.795740 3.303155 0.378605
-2.776274 3.281572 -0.680803
-3.158390 3.734846 0.600572
-2.778274 3.286770 -0.528425
-3.161749 3.742045 0.775915
-2.785797 3.298516 -0.377733
-3.177490 3.763923 0.957480
-2.779607 3.294028 -0.225882
-3.177538 3.767230 1.137802
-2.785461 3.303816 -0.075429
-3.177045 3.769898 1.321012
-2.739385 3.251972 -1.139321
-2.778218 3.299459 0.075290
-2.764483 3.284528 -0.991134
-2.781182 3.305759 0.226405
-2.758429 3.280094 -0.833072
-2.779444 3.306475 0.377907
-2.762656 3.287886 -0.680177
-3.163677 3.766734 0.603984
-2.764662 3.293045 -0.527938
-3.158068 3.763222 0.778105
-2.768333 3.300194 -0.376861
-3.192639 3.807622 0.965875
-2.760898 3.294103 -0.225254
-3.179984 3.795724 1.143201
-2.762899 3.299267 -0.075115
-3.178145 3.796725 1.326706
-2.723627 3.255112 -1.137251
-2.765979 3.307120 0.075255
-2.746076 3.284707 -0.988435
-2.765081 3.308833 0.225987
-2.742502 3.283196 -0.831546
-2.754417 3.298850 0.375990
-2.742877 3.286414 -0.677987
-3.172787 3.803118 0.608128
-2.748642 3.296097 -0.526963
-3.170867 3.804021 0.784362
-2.750997 3.301703 -0.375990
-3.192559 3.833274 0.969691
-2.748682 3.301706 -0.225149
-3.188570 3.831713 1.150850
-2.749385 3.305336 -0.075045
-3.172948 3.816156 1.329812
-2.714052 3.265611 -1.137769
-2.744738 3.303999 0.074976
-2.725137 3.281861 -0.984836
-2.751434 3.315001 0.225777
-2.726442 3.286348 -0.830019
-2.742010 3.306582 0.375816
-2.719142 3.280462 -0.674858
-3.171265 3.827617 0.610322
-2.729811 3.296259 -0.525501
-3.183053 3.845258 0.790620
-2.728241 3.297291 -0.374421
-3.189379 3.856324 0.972744
-2.729649 3.301925 -0.224521
-3.196404 3.868254 1.158498
-2.737903 3.314854 -0.075045
-3.187937 3.861438 1.341718
-2.717392 3.292946 -1.143980
-2.729371 3.308932 0.074871
-2.700028 3.274814 -0.979887
-2.732224 3.315337 0.225149
-2.717450 3.298876 -0.830782
-2.724119 3.308443 0.374944
-2.706419 3.288408 -0.674545
-3.174280 3.858592 0.613490
-2.713245 3.299635 -0.524526
-3.185917 3.876184 0.794687
-2.717979 3.308334 -0.374595
-3.194587 3.890192 0.978469
-2.711770 3.303714 -0.223998
-3.201422 3.901986 1.165246
-2.723779 3.321298 -0.074976
-3.195259 3.897941 1.350518
-2.719349 3.318848 -1.149674
-2.711469 3.310704 0.074696
-2.687346 3.282711 -0.979437
-2.707987 3.309397 0.224103
-2.693489 3.293145 -0.826966
-2.708771 3.313304 0.374421
-2.694924 3.297835 -0.674545
-3.180884 3.894248 0.617390
-2.686645 3.290633 -0.521601
-3.186106 3.904116 0.798129
-2.701377 3.311625 -0.373898
-3.195876 3.919579 0.983048
-2.696436 3.308515 -0.223684
-3.196398 3.923713 1.168396
-2.702068 3.318380 -0.074696
-3.202365 3.934542 1.359318
-2.706528 3.326822 -1.149157
-2.699896 3.320148 0.074696
-2.670954 3.286023 -0.977637
-2.692640 3.314179 0.223789
-2.668363 3.285763 -0.822768
-2.692166 3.316552 0.373724
-2.675928 3.298018 -0.672668
-3.188528 3.931537 0.621534
-2.671392 3.295365 -0.520870
-3.183651 3.929027 0.800944
-2.682277 3.311745 -0.372852
-3.211822 3.967332 0.992207
-2.682358 3.314802 -0.223475
-3.205967 3.963635 1.176944
-2.682925 3.318462 -0.074487
-3.203182 3.963727 1.365529
-2.682760 3.321221 -1.143980
-2.676984 3.315550 0.074382
-2.659468 3.295326 -0.977637
-2.682309 3.325113 0.223893
-2.654413 3.292000 -0.822005
-2.669320 3.311968 0.372155
-2.659443 3.301186 -0.671417
-3.200930 3.975112 0.626652
-2.656139 3.300031 -0.520138
-3.194682 3.970898 0.807202
-2.658215 3.305562 -0.371109
-3.212714 3.996882 0.996786
-2.673273 3.327259 -0.223684
-3.216517 4.005190 1.185942
-2.666318 3.321569 -0.074347
-3.201416 3.989952 1.370706
-2.645768 3.298917 -1.133110
-2.657889 3.315512 0.074173
-2.641856 3.296985 -0.975388
-2.665692 3.328220 0.223475
-2.644132 3.302778 -0.822387
-2.655254 3.318154 0.371806
-2.633097 3.291937 -0.667662
-3.201910 4.004867 0.629577
-2.643364 3.307732 -0.519895
-3.201760 4.008264 0.812521
-2.645417 3.313263 -0.370935
-3.212214 4.024951 1.000984
-2.649188 3.320957 -0.222637
-3.221955 4.040772 1.193140
-2.657200 3.333984 -0.074417
-3.207933 4.026789 1.379506
-2.637847 3.312667 -1.134663
-2.646282 3.324784 0.074173
-2.619376 3.292491 -0.971339
-2.646545 3.328168 0.222847
-2.633737 3.313582 -0.822768
-2.643564 3.327474 0.371806
-2.622710 3.302741 -0.667975
-3.200099 4.031690 0.632014
-2.630424 3.315498 -0.519651
-3.214554 4.053623 0.819404
-2.638604 3.328866 -0.371632
-3.221067 4.065569 1.008235
-2.632401 3.324094 -0.222218
-3.225685 4.075141 1.199889
-2.640327 3.337168 -0.074277
-3.210303 4.059438 1.386752
-2.715826 3.435749 -1.173486
-2.635609 3.335800 0.074208
-2.618449 3.315606 -0.975388
-2.632145 3.334481 0.222637
-2.630376 3.333773 -0.825440
-2.631642 3.336911 0.371806
-2.625551 3.330720 -0.671730
-3.208996 4.072739 0.636645
-2.622229 3.329567 -0.520382
-3.213471 4.082172 0.822845
-2.638997 3.353944 -0.373375
-3.228346 4.104845 1.015104
-2.624194 3.338201 -0.222532
-3.223124 4.101980 1.204388
-2.632076 3.351311 -0.074382
-3.224388 4.107367 1.399176
-2.740485 3.492559 -1.189532
-2.639736 3.365635 0.074661
-2.630688 3.355569 -0.984386
-2.625235 3.350080 0.223056
-2.629473 3.356959 -0.828874
-2.623553 3.350869 0.372329
-2.629663 3.360145 -0.675797
-3.216731 4.112094 0.641033
-2.627709 3.360593 -0.523794
-3.210194 4.107337 0.825661
-2.632254 3.369358 -0.374072
-3.241923 4.151573 1.023881
-2.631105 3.370844 -0.224103
-3.226991 4.136077 1.211136
-2.627960 3.369768 -0.074592
-3.223410 4.135112 1.404870
-2.732145 3.506437 -1.191085
-2.634410 3.382488 0.074836
-2.637209 3.387568 -0.991134
-2.633443 3.384215 0.224731
-2.640935 3.395333 -0.836125
-2.617025 3.366070 0.373027
-2.632757 3.387792 -0.679551
-3.222202 4.148101 0.644933
-2.634518 3.393036 -0.527451
-3.220420 4.149450 0.831918
-2.637868 3.400337 -0.376513
-3.241009 4.179648 1.028079
-2.635524 3.400300 -0.225463
-3.237959 4.179386 1.220584
-2.636066 3.403989 -0.075150
-3.231785 4.175084 1.414705
-2.739110 3.540162 -1.199367
-2.635098 3.407267 0.075185
-2.644697 3.421221 -0.998333
-2.640172 3.416907 0.226301
-2.648490 3.429219 -0.842231
-2.626160 3.401840 0.375990
-2.636789 3.417149 -0.683619
-3.227304 4.184316 0.648832
-2.640987 3.425679 -0.531107
-3.231395 4.193402 0.838489
-2.643116 3.431536 -0.378953
-3.240886 4.209516 1.032658
-2.639548 3.429999 -0.226824
-3.251935 4.227682 1.231382
-2.642488 3.436921 -0.075674
-3.237227 4.212363 1.423505
-2.742035 3.569618 -1.206097
-2.647545 3.448166 0.075883
-2.638671 3.438162 -1.000582
-2.640385 3.441949 0.227347
-2.652034 3.458697 -0.847192
-2.634873 3.437869 0.378953
-2.645267 3.452991 -0.688937
-3.221127 4.206588 0.650539
-2.645904 3.456946 -0.534519
-3.234742 4.228190 0.843182
-2.651696 3.467647 -0.381916
-3.244055 4.244200 1.038383
-2.636047 3.450301 -0.227557
-3.251350 4.257593 1.236781
-2.645035 3.465199 -0.076092
-3.238908 4.245139 1.430752
-2.743616 3.597601 -1.212308
-2.647615 3.473290 0.076232
-2.644369 3.470602 -1.007331
-2.639245 3.465446 0.228289
-2.651836 3.483554 -0.851008
-2.646986 3.478757 0.382439
-2.647547 3.481071 -0.692692
-3.218437 4.233610 0.652976
-2.642228 3.477225 -0.536225
-3.241469 4.267771 0.848813
-2.661260 3.505446 -0.385054
-3.250583 4.283649 1.045252
-2.644506 3.486534 -0.229336
-3.258838 4.298421 1.245329
-2.645000 3.490348 -0.076442
-3.259064 4.302618 1.446281
-2.738038 3.616398 -1.215414
-2.655989 3.509619 0.076825
-2.652224 3.506233 -1.014979
-2.646405 3.500127 0.229964
-2.649130 3.505320 -0.854061
-2.642032 3.497514 0.383485
-2.655616 3.517091 -0.698011
-3.302894 4.376330 0.673206
-2.650398 3.513367 -0.540369
-3.242013 4.299564 0.852881
-2.661000 3.530625 -0.386797
-3.269868 4.340444 1.056319
-2.652743 3.522867 -0.231116
-3.261392 4.333126 1.252078
-2.647227 3.518735 -0.076860
-3.264924 4.341760 1.455598
-2.745130 3.652186 -1.224214
-2.658136 3.538054 0.077244
-2.662203 3.545077 -1.023527
-2.658151 3.541290 0.232058
-2.655729 3.539672 -0.860167
-2.642956 3.524249 0.385403
-2.651616 3.537404 -0.700201
-3.385201 4.518101 0.693193
-2.657157 3.548020 -0.544268
-3.247109 4.337738 0.858199
-2.659402 3.554249 -0.388366
-3.273510 4.376986 1.062424
-2.658368 3.556101 -0.232686
-3.270743 4.377266 1.261526
-2.654074 3.553589 -0.077419
-3.255527 4.360870 1.458187
-2.756627 3.694260 -1.235084
-2.654139 3.558531 0.077489
-2.662624 3.571534 -1.028476
-2.660094 3.569766 0.233314
-2.660949 3.572538 -0.865891
-2.647295 3.555827 0.387843
-2.651045 3.562486 -0.703329
-3.382442 4.547411 0.695874
-2.660153 3.577983 -0.547437
-3.260226 4.387098 0.865708
-2.663612 3.585903 -0.390806
-3.271086 4.405725 1.066622
-2.661412 3.586209 -0.234046
-3.278663 4.419959 1.270524
-2.660709 3.588533 -0.077977
-3.264441 4.404801 1.469057
-2.832259 3.823390 -1.274943
-2.660760 3.593473 0.078047
-2.664092 3.599574 -1.033875
-2.661930 3.598254 0.234570
-2.673053 3.614897 -0.873905
-2.650360 3.585803 0.390109
-2.659839 3.600230 -0.708961
-3.363184 4.554271 0.695143
-2.663129 3.607894 -0.550606
-3.267391 4.428494 0.871653
-2.669013 3.619086 -0.393421
-3.275756 4.443786 1.073110
-2.656221 3.604951 -0.234674
-3.284330 4.459390 1.278622
-2.669781 3.626583 -0.078606
-3.279175 4.456360 1.482515
-2.822664 3.837675 -1.276496
-2.666282 3.626675 0.078571
-2.667981 3.630605 -1.040174
-2.654398 3.613731 0.234988
-2.675839 3.644546 -0.878866
-2.660538 3.625322 0.393421
-2.659254 3.625189 -0.712090
-3.345317 4.562489 0.694655
-2.666090 3.637752 -0.553774
-3.274481 4.469866 0.877597
-2.681399 3.661907 -0.397082
-3.283803 4.486594 1.080742
-2.666343 3.644597 -0.236663
-3.285239 4.492564 1.284920
-2.671583 3.655022 -0.079024
-3.290202 4.503371 1.494421
-2.760595 3.780175 -1.254237
-2.681040 3.672877 0.079374
-2.677433 3.669575 -1.048722
-2.665621 3.655018 0.237082
-2.676141 3.671083 -0.883064
-2.658744 3.648848 0.394990
-2.673649 3.670944 -0.719286
-3.299393 4.532122 0.688318
-2.668878 3.667671 -0.556943
-3.276678 4.504947 0.882290
-2.677122 3.682292 -0.398302
-3.296214 4.535861 1.089901
-2.672704 3.679506 -0.238338
-3.298553 4.543142 1.296168
-2.673222 3.683514 -0.079443
-3.294140 4.541127 1.503221
-2.696683 3.719168 -1.230943
-2.681433 3.699791 0.079757
-2.684364 3.705494 -1.056370
-2.675422 3.694805 0.239071
-2.685502 3.710387 -0.890315
-2.662659 3.680475 0.397430
-2.685448 3.713637 -0.725856
-3.286275 4.546542 0.688806
-2.684280 3.715350 -0.562793
-3.287927 4.552906 0.889486
-2.678567 3.710768 -0.400393
-3.307178 4.583671 1.098678
-2.678858 3.714500 -0.240013
-3.305863 4.585959 1.305166
-2.677037 3.715304 -0.079932
-3.297859 4.578961 1.512021
-2.682708 3.729261 -1.230943
-2.683854 3.732572 0.080246
-2.687459 3.739307 -1.063119
-2.687114 3.740548 0.241373
-2.687510 3.742823 -0.895657
-2.669640 3.719648 0.400568
-2.678281 3.733406 -0.727733
-3.272488 4.563806 0.689537
-2.684034 3.744875 -0.565717
-3.290152 4.592671 0.894805
-2.688780 3.754956 -0.404054
-3.303391 4.615404 1.103258
-2.679764 3.745817 -0.241373
-3.310975 4.630268 1.314164
-2.686048 3.758064 -0.080630
-3.301615 4.621438 1.521856
-2.747138 3.847082 -1.266660
-2.691720 3.771215 0.080874
-2.694762 3.777220 -1.071217
-2.693754 3.777550 0.243153
-2.702917 3.792149 -0.905198
-2.672825 3.751662 0.403008
-2.675545 3.757214 -0.730549
-3.273804 4.599460 0.693193
-2.691660 3.783336 -0.570105
-3.299286 4.639544 0.901688
-2.699897 3.798422 -0.407715
-3.308864 4.657315 1.110508
-2.685175 3.781203 -0.243048
-3.312840 4.667223 1.321362
-2.699527 3.804928 -0.081433
-3.308931 4.666027 1.532726
-2.773910 3.913387 -1.285295
-2.702837 3.814838 0.081607
-2.700749 3.813610 -1.078865
-2.696769 3.809708 0.244618
-2.705622 3.823939 -0.910541
-2.680523 3.790177 0.406146
-2.687623 3.801930 -0.737432
-3.280816 4.643160 0.698068
-2.688909 3.807185 -0.572298
-3.302666 4.678305 0.907007
-2.705209 3.833723 -0.410504
-3.322288 4.710353 1.120430
-2.695225 3.823026 -0.245142
-3.319310 4.710384 1.330361
-2.699187 3.832107 -0.081817
-3.319697 4.715191 1.545150
-2.768357 3.933864 -1.288919
-2.707095 3.848549 0.082131
-2.709050 3.853069 -1.087413
-2.697568 3.838473 0.245874
-2.705005 3.850797 -0.914738
-2.706535 3.854718 0.412072
-2.701902 3.849861 -0.744941
-3.293494 4.694927 0.704161
-2.701009 3.852072 -0.577661
-3.307132 4.718636 0.912639
-2.709293 3.867385 -0.413118
-3.332138 4.758621 1.129208
-2.701667 3.859993 -0.246921
-3.332304 4.763170 1.342058
-2.704464 3.867491 -0.082375
-3.322444 4.753380 1.553950
-2.743889 3.927427 -1.283742
-2.704264 3.872510 0.082445
-2.718186 3.894255 -1.096411
-2.703853 3.875522 0.247654
-2.706398 3.880974 -0.919699
-2.716081 3.896670 0.415559
-2.704467 3.881814 -0.749321
-3.307946 4.750217 0.710742
-2.706994 3.889057 -0.581804
-3.314513 4.764078 0.919209
-2.707278 3.893088 -0.414861
-3.336927 4.800762 1.136458
-2.709913 3.900506 -0.248910
-3.335743 4.803530 1.350156
-2.712655 3.908091 -0.083039
-3.332287 4.803024 1.566373
-2.732365 3.940156 -1.284778
-2.713514 3.914796 0.083143
-2.722333 3.929349 -1.103610
-2.713050 3.917776 0.249747
-2.718534 3.927526 -0.928477
-3.469898 5.015376 0.533567
-2.711124 3.920475 -0.754953
-3.313919 4.794394 0.715617
-2.712584 3.926247 -0.585948
-3.321435 4.809753 0.925779
-2.715177 3.933669 -0.418173
-3.335758 4.835004 1.141801
-2.711021 3.931317 -0.250271
-3.343287 4.850444 1.360054
-2.714880 3.940590 -0.083527
-3.333032 4.840084 1.574655
-2.727357 3.962400 -1.288919
-2.719100 3.952251 0.083737
-2.735101 3.977365 -1.114408
-2.716328 3.951912 0.251317
-2.721483 3.961264 -0.934201
-3.469288 5.052094 0.536182
-2.715309 3.955973 -0.759959
-3.318500 4.837034 0.720248
-2.715702 3.960249 -0.589604
-3.331429 4.860423 0.933288
-2.723950 3.975996 -0.421659
-3.346591 4.887115 1.151341
-2.709691 3.958886 -0.251422
-3.348342 4.894252 1.369052
-2.723683 3.983056 -0.084225
-3.341189 4.888372 1.586561
-2.710240 3.967111 -1.287366
-2.726714 3.993095 0.084400
-2.761848 4.046442 -1.131054
-2.712647 3.976219 0.252259
-2.726443 3.998314 -0.940688
-3.450509 5.062527 0.536008
-2.721502 3.994813 -0.765590
-3.331763 4.892890 0.726829
-2.714148 3.987756 -0.592285
-3.335554 4.903054 0.939233
-2.731341 4.016784 -0.424971
-3.353790 4.934489 1.159737
-2.717180 3.999710 -0.253411
-3.347658 4.930093 1.375801
-2.719870 4.007430 -0.084539
-3.353387 4.943170 1.600537
-2.694207 3.973349 -1.286331
-2.732953 4.032384 0.085028
-2.807820 4.144795 -1.155799
-2.721147 4.018739 0.254353
-2.727875 4.030569 -0.946031
-3.418304 5.053087 0.533742
-2.731884 4.040290 -0.772473
-3.335783 4.935740 0.731460
-2.724658 4.033395 -0.597647
-3.341632 4.949047 0.945803
-2.734022 4.051066 -0.427586
-3.363993 4.986855 1.169278
-2.724416 4.040634 -0.255399
-3.358745 4.983764 1.387498
-2.723740 4.043436 -0.085098
-3.358770 4.988497 1.611407
-2.676007 3.976319 -1.284260
-2.733370 4.063470 0.085482
-2.839002 4.222493 -1.174694
-2.726041 4.056394 0.256132
-2.735683 4.072661 -0.953663
-3.391760 5.051756 0.532347
-2.735376 4.076045 -0.777479
-3.349496 4.993513 0.738284
-2.733777 4.077506 -0.602766
-3.344130 4.990219 0.951434
-2.735387 4.083759 -0.430026
-3.367317 5.029564 1.176528
-2.731400 4.081658 -0.257388
-3.370581 5.039193 1.399645
-2.734060 4.089492 -0.085866
-3.359583 5.027497 1.620207
-2.664256 3.988848 -1.285295
-2.738045 4.101259 0.086075
-2.813429 4.216167 -1.170195
-2.738462 4.105763 0.258644
-2.746497 4.119757 -0.962441
-3.371896 5.060248 0.531999
-2.736462 4.108586 -0.781859
-3.354046 5.038223 0.743159
-2.741521 4.120077 -0.607641
-3.356227 5.046272 0.959882
-2.737661 4.118171 -0.432641
-3.363865 5.062545 1.181489
-2.735920 4.119451 -0.259168
-3.378837 5.089893 1.410443
-2.742986 4.134002 -0.086599
-3.366572 5.076223 1.632113
-2.654586 4.004565 -1.287366
-2.745802 4.144131 0.086773
-2.767490 4.178844 -1.157148
-2.740650 4.140279 0.260214
-2.751600 4.158790 -0.969310
-3.354212 5.071988 0.531999
-2.739532 4.144479 -0.786865
-3.358324 5.083025 0.748034
-2.745719 4.157782 -0.611784
-3.364709 5.097523 0.967391
-2.746310 4.162626 -0.436302
-3.379678 5.125064 1.193319
-2.738012 4.153990 -0.260738
-3.380347 5.130948 1.418541
-2.748335 4.173614 -0.087227
-3.373260 5.125058 1.644019
-2.642715 4.017034 -1.288401
-2.754392 4.188778 0.087506
-2.741113 4.170566 -1.152199
-2.742631 4.174859 0.261784
-2.747842 4.184781 -0.973126
-3.361631 5.121976 0.536008
-2.745635 4.185399 -0.792810
-3.366684 5.134559 0.753884
-2.746422 4.190585 -0.615196
-3.372873 5.148895 0.974900
-2.752500 4.203858 -0.439614
-3.386494 5.174613 1.202097
-2.746455 4.198622 -0.262936
-3.380545 5.170445 1.426190
-2.746877 4.203269 -0.087646
-3.381762 5.177236 1.656960
-2.626564 4.022999 -1.287366
-2.751775 4.216789 0.087890
-3.074675 4.713844 -1.299317
-2.744403 4.209504 0.263355
-2.748223 4.217375 -0.978469
-3.372003 5.177085 0.540540
-2.737475 4.204890 -0.794687
-3.379056 5.192867 0.760708
-0.000000 0.000000 -0.000000
-3.373183 5.188792 0.980218
-2.764948 4.255207 -0.443971
-3.397283 5.230857 1.212400
-0.000000 0.000000 -0.000000
-3.388994 5.223083 1.437437
-2.727835 4.206121 -0.087506
-3.390991 5.231157 1.670418
