X Y Z
-5.981289 3.108357 -0.353268
-2.838994 1.476155 0.738739
-5.962391 3.101841 -0.117315
-2.837742 1.477078 0.857209
-2.501590 1.302800 -0.755752
-5.940852 3.095578 0.116931
-2.699142 1.407180 -0.702747
-5.944660 3.100861 0.351384
-2.842200 1.483341 -0.623182
-5.930582 3.096810 0.585338
-2.846842 1.487344 -0.508725
-5.984921 3.128509 0.829199
-2.835565 1.483028 -0.392907
-5.964771 3.121290 1.066257
-5.641255 2.953566 -0.557100
-6.003333 3.144807 1.317345
-5.950943 3.119017 -0.352116
-2.847631 1.493296 0.742338
-5.921424 3.106840 -0.116722
-2.841121 1.491464 0.859797
-2.500447 1.313321 -0.756787
-5.892837 3.096761 0.116198
-2.747684 1.444708 -0.716694
-5.910821 3.109504 0.350023
-2.850903 1.500568 -0.626235
-5.884479 3.098925 0.581852
-2.845128 1.499114 -0.509351
-5.937088 3.129940 0.824081
-2.844418 1.500326 -0.394857
-5.934623 3.131950 1.062816
-5.655576 2.986264 -0.559540
-5.950658 3.143733 1.308186
-5.901173 3.119238 -0.349814
-2.859627 1.512338 0.746838
-5.878728 3.110656 -0.116093
-2.846142 1.506795 0.862903
-2.500969 1.324754 -0.758340
-5.859022 3.105139 0.115744
-2.808047 1.488981 -0.733790
-5.869938 3.114205 0.348243
-2.854318 1.515113 -0.628143
-5.856029 3.110102 0.580109
-2.843367 1.510890 -0.509976
-5.891070 3.132008 0.819206
-2.839163 1.510245 -0.394857
-5.899241 3.139654 1.058436
-5.673256 3.020970 -0.562329
-5.908459 3.147869 1.301317
-5.860287 3.123846 -0.348034
-2.854331 1.522311 0.746838
-5.844899 3.118919 -0.115640
-2.849386 1.521270 0.865491
-2.501442 1.336207 -0.759893
-5.834038 3.118031 0.115465
-2.833765 1.515315 -0.741889
-5.815005 3.111121 0.345627
-2.852474 1.526920 -0.628906
-5.831086 3.122999 0.578714
-2.846781 1.525471 -0.511541
-5.848611 3.135669 0.814818
-2.833874 1.520147 -0.394857
-5.853435 3.141544 1.052178
-5.678474 3.049238 -0.563898
-5.887058 3.162900 1.299028
-5.819440 3.128207 -0.346255
-2.842134 1.528573 0.745038
-5.819889 3.131722 -0.115360
-2.852563 1.535786 0.868079
-2.496762 1.344930 -0.759893
-5.794954 3.123197 0.114907
-2.843896 1.533522 -0.745938
-5.786532 3.121917 0.344580
-2.843671 1.535003 -0.628143
-5.779829 3.121558 0.574705
-2.851866 1.541034 -0.513418
-5.820167 3.146625 0.812381
-2.833789 1.532863 -0.395588
-5.804213 3.141273 1.045295
-5.674803 3.072836 -0.564595
-5.838006 3.162856 1.290632
-5.787415 3.137080 -0.344999
-2.852199 1.546845 0.749087
-5.773769 3.132944 -0.114662
-2.857371 1.551265 0.871185
-2.488657 1.351793 -0.758857
-5.741849 3.120490 0.114069
-2.845374 1.547163 -0.747737
-5.758055 3.132552 0.343533
-2.848642 1.550551 -0.630433
-5.733903 3.122656 0.571219
-2.849939 1.552869 -0.514044
-5.779518 3.150769 0.808237
-2.840620 1.549399 -0.397294
-5.768937 3.148266 1.040915
-5.679781 3.101220 -0.566164
-5.802809 3.170038 1.285289
-5.762408 3.149600 -0.344161
-2.860460 1.564272 0.752686
-5.731221 3.135802 -0.114034
-2.855328 1.563085 0.872220
-2.517811 1.379032 -0.769210
-5.695848 3.121294 0.113371
-2.845082 1.559897 -0.749087
-5.722570 3.139185 0.342068
-2.851818 1.565208 -0.632341
-5.702011 3.131144 0.569127
-2.844501 1.562808 -0.514044
-5.735433 3.152755 0.803606
-2.847369 1.566002 -0.399000
-5.733683 3.155052 1.036535
-5.691611 3.133519 -0.568430
-5.753876 3.169435 1.276894
-5.716395 3.150415 -0.342068
-2.861808 1.578011 0.754486
-5.697478 3.143231 -0.113580
-2.860002 1.578643 0.875326
-2.531584 1.398086 -0.774904
-5.670916 3.133420 0.113092
-2.844736 1.572647 -0.750437
-5.688857 3.146574 0.340707
-2.861797 1.583709 -0.635776
-5.675359 3.142343 0.567558
-2.849396 1.578471 -0.515921
-5.689668 3.153510 0.798732
-2.840150 1.574969 -0.398756
-5.701907 3.163546 1.032780
-5.684122 3.155301 -0.568778
-5.718749 3.176155 1.271551
-5.670447 3.150947 -0.339974
-2.857986 1.588938 0.754936
-5.651521 3.143659 -0.112882
-2.859539 1.591435 0.876879
-2.535127 1.411613 -0.777492
-5.638998 3.141487 0.112673
-2.844353 1.585382 -0.751786
-5.634281 3.142001 0.338090
-2.858000 1.594583 -0.636157
-5.638347 3.147413 0.564944
-2.855993 1.595057 -0.518111
-5.670082 3.168293 0.797513
-2.838169 1.586687 -0.399244
-5.663401 3.167722 1.027774
-5.645428 3.159246 -0.565989
-5.683837 3.182328 1.266208
-5.635226 3.156686 -0.338509
-2.849135 1.596797 0.754036
-5.616336 3.149244 -0.112393
-2.870945 1.610626 0.882055
-2.535362 1.423070 -0.779045
-5.600377 3.144994 0.112114
-2.845737 1.598872 -0.753586
-5.588734 3.141584 0.335997
-2.855979 1.606225 -0.636920
-5.617184 3.160722 0.563898
-2.860876 1.610582 -0.519988
-5.622944 3.167114 0.792394
-2.843129 1.602184 -0.400706
-5.614732 3.165635 1.020891
-5.591260 3.153969 -0.561632
-5.655876 3.192004 1.262392
-5.593145 3.158170 -0.336625
-2.853865 1.612236 0.756735
-5.569027 3.147677 -0.111660
-2.868810 1.622289 0.883091
-2.535548 1.434544 -0.780598
-5.565243 3.150306 0.111626
-2.845330 1.611491 -0.754936
-5.564005 3.152892 0.335159
-2.864088 1.623807 -0.639973
-5.571561 3.160466 0.560411
-2.860426 1.623422 -0.520927
-5.589449 3.173918 0.789226
-2.847875 1.617983 -0.402169
-5.579570 3.171610 1.016511
-5.545509 3.153889 -0.558145
-5.620705 3.198319 1.257050
-5.571534 3.171989 -0.335997
-2.854904 1.626201 0.758535
-5.530001 3.151619 -0.111102
-2.856293 1.628684 0.881020
-2.585773 1.475198 -0.797680
-5.508782 3.144424 0.110718
-2.807394 1.603299 -0.746388
-5.530145 3.159898 0.333799
-2.866782 1.638916 -0.641881
-5.518710 3.156639 0.556228
-2.858028 1.635608 -0.521553
-5.552217 3.179101 0.785570
-2.867905 1.642963 -0.405825
-5.544193 3.177800 1.012131
-5.513449 3.161816 -0.556054
-5.578574 3.200822 1.250181
-5.522042 3.170027 -0.333694
-2.869346 1.648052 0.763934
-5.516955 3.170388 -0.111067
-2.867195 1.648523 0.886196
-2.588851 1.489257 -0.800268
-5.480182 3.154109 0.110369
-2.683444 1.545231 -0.714894
-5.501550 3.169604 0.332752
-2.872842 1.655963 -0.644553
-5.472949 3.156307 0.552742
-2.860767 1.650666 -0.523117
-5.511703 3.181862 0.781426
-2.856923 1.650110 -0.405094
-5.519262 3.189438 1.009628
-5.478127 3.167261 -0.553613
-5.540089 3.204699 1.244075
-5.490130 3.177398 -0.332438
-2.866921 1.660058 0.764834
-5.483326 3.176656 -0.110613
-2.868099 1.662412 0.888267
-2.576952 1.494408 -0.798198
-5.448383 3.161176 0.109950
-2.575227 1.494909 -0.687450
-5.454183 3.167724 0.330554
-2.858557 1.661049 -0.642645
-5.455008 3.171386 0.552044
-2.872063 1.670574 -0.526246
-5.476543 3.187104 0.778014
-2.854577 1.662071 -0.405581
-5.484199 3.194764 1.005248
-5.449824 3.176332 -0.551870
-5.508517 3.212150 1.239495
-5.458304 3.184466 -0.331182
-2.861109 1.670055 0.764834
-5.444576 3.179641 -0.110055
-2.882295 1.684108 0.894479
-2.561713 1.497544 -0.795092
-5.411423 3.165032 0.109427
-2.551492 1.493063 -0.682501
-5.418963 3.172616 0.329088
-2.830719 1.658118 -0.637684
-5.412963 3.172275 0.548907
-2.878142 1.687583 -0.528436
-5.458535 3.202183 0.777039
-2.859030 1.678054 -0.407044
-5.444056 3.196883 0.999929
-5.418089 3.183225 -0.549778
-5.470191 3.215441 1.233389
-5.426496 3.191349 -0.329926
-2.868698 1.687938 0.768433
-5.386915 3.171236 -0.109112
-2.873069 1.692198 0.893443
-2.544820 1.499612 -0.791469
-5.379671 3.171715 0.109008
-2.544586 1.500970 -0.682052
-5.378614 3.174255 0.327309
-2.806318 1.657008 -0.633486
-5.379557 3.177977 0.546641
-2.872234 1.697620 -0.528436
-5.414859 3.202020 0.772408
-2.873657 1.700153 -0.409968
-5.412465 3.203792 0.996175
-5.384658 3.188919 -0.547512
-5.435287 3.220505 1.228047
-5.396424 3.199069 -0.328774
-2.872846 1.703906 0.771132
-5.358616 3.179816 -0.108763
-2.875451 1.707148 0.896032
-2.532926 1.504539 -0.789398
-5.341062 3.174128 0.108449
-2.541006 1.510839 -0.682501
-5.365785 3.191989 0.327204
-2.797142 1.664786 -0.632723
-5.342753 3.181445 0.544026
-2.869685 1.709657 -0.529061
-5.374661 3.203623 0.768264
-2.879639 1.717291 -0.411675
-5.372410 3.205459 0.990856
-5.339279 3.187271 -0.544026
-5.403786 3.227378 1.223467
-5.352649 3.198421 -0.326786
-2.883607 1.723924 0.775631
-5.335471 3.191316 -0.108519
-2.874447 1.720151 0.897584
-2.526001 1.512379 -0.788880
-5.311080 3.181449 0.108065
-2.539060 1.521703 -0.683401
-5.313500 3.186050 0.324692
-2.787947 1.672520 -0.631959
-5.314532 3.189822 0.542283
-2.873860 1.725766 -0.530939
-5.337922 3.207030 0.764608
-2.868523 1.724264 -0.410943
-5.342567 3.212994 0.987414
-5.311049 3.195617 -0.542283
-5.363894 3.229008 1.216980
-5.317499 3.202659 -0.325320
-2.880910 1.735990 0.776531
-5.324298 3.209921 -0.108519
-2.883313 1.739154 0.902243
-2.527322 1.525180 -0.790951
-5.284535 3.190667 0.107751
-2.537069 1.532572 -0.684301
-5.276706 3.189082 0.323122
-2.775372 1.678178 -0.630433
-5.286318 3.198041 0.540540
-2.881338 1.743970 -0.533442
-5.306318 3.213304 0.761683
-2.864184 1.735295 -0.411187
-5.307669 3.217288 0.983034
-5.282826 3.203806 -0.540540
-5.334126 3.236509 1.212782
-5.287507 3.209801 -0.324169
-2.874832 1.746036 0.776531
-5.273756 3.204603 -0.107716
-2.883828 1.753223 0.904314
-2.512080 1.527969 -0.787845
-5.251158 3.195579 0.107297
-2.536697 1.544459 -0.685651
-5.248485 3.197091 0.322075
-2.749380 1.675595 -0.625854
-5.247905 3.199878 0.537751
-2.892097 1.764304 -0.536570
-5.273042 3.218363 0.758515
-2.875052 1.755628 -0.413625
-5.266064 3.217259 0.977403
-5.247811 3.207679 -0.538100
-5.309397 3.246915 1.209729
-5.252419 3.213645 -0.322704
-2.882017 1.764200 0.780130
-5.231842 3.204193 -0.107088
-2.884279 1.767316 0.906384
-2.493555 1.528651 -0.783704
-5.216125 3.199224 0.106809
-2.537951 1.557354 -0.687450
-5.222026 3.205902 0.321133
-2.753588 1.691287 -0.628143
-5.209631 3.201345 0.534962
-2.884296 1.773260 -0.536257
-5.248373 3.228228 0.756565
-2.880817 1.772810 -0.415331
-5.241504 3.227078 0.974900
-5.209616 3.208973 -0.535311
-5.264800 3.244510 1.202097
-5.229480 3.224279 -0.321971
-2.889235 1.782230 0.783729
-5.198749 3.208385 -0.106634
-2.883169 1.780182 0.907937
-2.485051 1.535098 -0.782669
-5.176288 3.199086 0.106215
-2.537609 1.569057 -0.688800
-5.195799 3.214200 0.320191
-2.751155 1.702715 -0.628906
-5.178378 3.206470 0.532870
-2.883282 1.786187 -0.537196
-5.208671 3.228294 0.752421
-2.895012 1.795158 -0.418256
-5.206990 3.230319 0.970519
-5.181736 3.216178 -0.533567
-5.222038 3.242732 1.194846
-5.191332 3.225195 -0.320296
-2.893083 1.798225 0.786429
-5.165724 3.212332 -0.106180
-2.883655 1.794066 0.910008
-2.486372 1.547631 -0.784739
-5.151756 3.208284 0.105936
-2.528912 1.575679 -0.687900
-5.159300 3.216186 0.318621
-2.755264 1.718422 -0.631196
-5.140214 3.207481 0.530081
-2.887122 1.802454 -0.539073
-5.167101 3.227470 0.748034
-2.888728 1.805253 -0.418256
-5.175548 3.235965 0.966765
-5.160272 3.228019 -0.532522
-5.190610 3.248612 1.190267
-5.147738 3.223383 -0.318307
-2.898250 1.815713 0.789578
-5.140713 3.222185 -0.105901
-2.891967 1.813578 0.914667
-2.487365 1.560624 -0.786810
-5.116533 3.211812 0.105447
-2.523258 1.584717 -0.687900
-5.112246 3.212309 0.316423
-2.754084 1.731404 -0.632341
-5.120273 3.220548 0.529210
-2.890686 1.819085 -0.540950
-5.138721 3.235360 0.745597
-2.883930 1.816635 -0.418499
-5.142212 3.240770 0.962698
-5.131837 3.235835 -0.530778
-5.164009 3.257735 1.186832
-5.112527 3.226856 -0.316842
-2.895030 1.828152 0.790478
-5.113937 3.230945 -0.105587
-2.893625 1.829075 0.917255
-2.471969 1.563318 -0.783704
-5.108406 3.232209 0.105517
-2.520882 1.595792 -0.688800
-5.092336 3.225153 0.315900
-2.772785 1.756949 -0.638065
-5.093661 3.229107 0.527641
-2.897564 1.837786 -0.543453
-5.113828 3.245021 0.743647
-2.885871 1.832136 -0.419718
-5.100729 3.239832 0.957066
-5.080046 3.228250 -0.526595
-5.135949 3.265348 1.183016
-5.085994 3.235146 -0.315900
-2.898466 1.844571 0.793177
-5.078977 3.233796 -0.105098
-2.893730 1.843332 0.919325
-2.466497 1.571937 -0.783704
-5.078545 3.238194 0.105133
-2.515296 1.604582 -0.688800
-5.082731 3.243984 0.316005
-2.796420 1.785636 -0.644934
-5.073963 3.241504 0.526769
-2.891131 1.847889 -0.543453
-5.075711 3.245741 0.739747
-2.894507 1.851827 -0.421912
-5.076079 3.249097 0.954563
-5.045256 3.230920 -0.524155
-5.112948 3.275842 1.180344
-5.052811 3.238868 -0.314539
-2.901852 1.860989 0.795877
-5.067658 3.251505 -0.105098
-2.892155 1.856552 0.920878
-2.460995 1.580537 -0.783704
-5.040293 3.238607 0.104575
-2.504762 1.610190 -0.687450
-5.054578 3.250902 0.314958
-2.801727 1.802823 -0.647606
-5.049215 3.250568 0.525375
-2.894628 1.864388 -0.545331
-5.044327 3.250535 0.736822
-2.896368 1.867297 -0.423130
-5.043127 3.252877 0.950496
-5.022229 3.240950 -0.522934
-5.070144 3.273437 1.173094
-5.026375 3.246733 -0.313597
-2.914978 1.883800 0.801276
-5.032767 3.253974 -0.104610
-2.903500 1.878178 0.926572
-2.461950 1.593316 -0.785775
-5.018886 3.249660 0.104365
-2.499127 1.618924 -0.687450
-5.011355 3.247887 0.312969
-2.800359 1.815796 -0.648751
-5.017780 3.255161 0.523283
-2.888102 1.874481 -0.545331
-5.012971 3.255150 0.733897
-2.891497 1.878477 -0.423374
-5.020147 3.262925 0.948306
-3.041607 1.977886 -0.317421
-5.045522 3.282550 1.170041
-4.989903 3.247915 -0.312027
-2.918183 1.900344 0.803975
-5.024729 3.273705 -0.104680
-2.901781 1.891467 0.928125
-2.462846 1.606122 -0.787845
-3.049726 1.989798 0.063562
-2.498356 1.630833 -0.688800
-3.036781 1.983242 0.190084
-2.785786 1.820191 -0.646842
-5.026399 3.285739 0.525375
-2.901380 1.897525 -0.549085
-3.028189 1.981402 0.444336
-2.889905 1.891821 -0.424105
-3.032337 1.986007 0.574114
-3.024686 1.981939 -0.316375
-5.020898 3.291532 1.166988
-3.029541 1.987010 -0.189875
-2.908273 1.908381 0.803075
-3.035712 1.992952 -0.063387
-2.908078 1.910069 0.932266
-2.453995 1.612587 -0.786810
-3.032736 1.993840 0.063352
-2.500788 1.644899 -0.691050
-3.019830 1.987243 0.189456
-2.766297 1.821267 -0.643790
-3.023249 1.991384 0.316724
-2.902986 1.913076 -0.550649
-3.019596 1.990868 0.444092
-2.898197 1.911734 -0.426299
-3.015494 1.990051 0.572237
-3.007773 1.985898 -0.315329
-3.050184 2.014856 0.710573
-3.007591 1.987663 -0.188933
-2.914598 1.927119 0.806674
-2.990377 1.978162 -0.062584
-2.911059 1.926605 0.935372
-2.448352 1.621143 -0.786810
-3.015755 1.997788 0.063143
-2.501529 1.657924 -0.692849
-3.004552 1.992253 0.188933
-2.746835 1.822230 -0.640737
-3.006319 1.995314 0.315678
-2.904518 1.928661 -0.552214
-3.015936 2.003593 0.444579
-2.904732 1.930630 -0.428249
-3.003594 1.997284 0.571299
-2.959352 1.968796 -0.310972
-3.023520 2.012437 0.705993
-2.988997 1.990400 -0.188200
-2.927315 1.950247 0.812073
-2.966814 1.977497 -0.062235
-2.907531 1.938899 0.936407
-2.441071 1.628607 -0.786292
-2.962193 1.977218 0.062165
-2.510312 1.676386 -0.696898
-2.975990 1.988305 0.187572
-2.732296 1.826352 -0.638829
-2.959587 1.979215 0.311495
-2.896126 1.937690 -0.551901
-2.972632 1.989816 0.439217
-2.911170 1.949594 -0.430199
-2.976911 1.994562 0.567544
-2.929292 1.963583 -0.308531
-2.990388 2.005483 0.699887
-2.938910 1.971888 -0.185479
-2.930198 1.966970 0.814773
-2.949933 1.981152 -0.062026
-2.911970 1.956578 0.940031
-2.444991 1.643585 -0.789398
-2.930394 1.970791 0.061642
-2.530332 1.702517 -0.704097
-2.925986 1.969634 0.184851
-2.711289 1.825949 -0.635394
-2.913059 1.962734 0.307311
-2.897599 1.953213 -0.553465
-2.916370 1.966769 0.431905
-2.911015 1.964059 -0.431174
-2.924185 1.973850 0.558784
-2.922528 1.973636 -0.308531
-2.947702 1.991550 0.691492
-2.922210 1.975232 -0.184851
-2.926682 1.979163 0.815673
-2.936527 1.986730 -0.061886
-2.913282 1.971908 0.942619
-2.440982 1.652980 -0.789916
-2.920359 1.978509 0.061572
-2.622923 1.777815 -0.731541
-2.912654 1.975098 0.184432
-2.692061 1.826348 -0.632341
-2.916253 1.979350 0.308357
-2.908911 1.975271 -0.556907
-2.906375 1.974452 0.431417
-2.909239 1.977302 -0.431905
-2.899482 1.971573 0.555342
-2.928972 1.992537 -0.309926
-2.932791 1.996047 0.689584
-2.907216 1.979546 -0.184327
-2.923151 1.991306 0.816572
-2.911571 1.984325 -0.061502
-2.925708 1.994871 0.948831
-2.432151 1.659101 -0.788880
-2.925159 1.996343 0.061816
-2.632932 1.797748 -0.736040
-2.912479 1.989553 0.184851
-2.674444 1.827804 -0.629670
-2.904512 1.985970 0.307834
-2.911889 1.991946 -0.558784
-2.899563 1.984443 0.431417
-2.913871 1.995169 -0.433611
-2.895917 1.983804 0.555968
-2.907274 1.992516 -0.308357
-2.940433 2.016185 0.693018
-2.906920 1.994138 -0.184746
-2.922642 2.005861 0.818372
-2.903000 1.993312 -0.061467
-2.920330 2.006149 0.949348
-2.429529 1.669769 -0.789916
-2.909934 2.000877 0.061642
-2.631457 1.810241 -0.737390
-2.907162 2.000840 0.184955
-2.671281 1.839355 -0.630433
-2.900843 1.998357 0.308183
-2.919556 2.012187 -0.561600
-2.907326 2.004694 0.433611
-2.923229 2.016601 -0.436049
-2.887349 1.992779 0.555655
-2.910138 2.009444 -0.309403
-2.928532 2.023089 0.691873
-2.909799 2.011086 -0.185374
-2.928445 2.024917 0.821971
-2.912470 2.014810 -0.061816
-2.913309 2.016331 0.949348
-2.426862 1.680439 -0.790951
-2.909518 2.015562 0.061782
-2.617134 1.813837 -0.735140
-2.911682 2.018894 0.185688
-2.679403 1.858681 -0.633867
-2.885720 2.002712 0.307311
-2.912581 2.022271 -0.561600
-2.910170 2.021515 0.435074
-2.932561 2.037994 -0.438486
-2.901558 2.017363 0.559723
-2.914665 2.027396 -0.310623
-2.910294 2.025274 0.689202
-2.912729 2.027888 -0.186002
-2.937494 2.046058 0.826470
-2.913777 2.030459 -0.061991
-2.922267 2.037298 0.954525
-2.425882 1.692004 -0.792504
-2.912481 2.032318 0.061991
-2.604554 1.818272 -0.733340
-2.911343 2.033367 0.186107
-2.722950 1.902649 -0.645698
-2.913180 2.036493 0.310972
-2.910538 2.035568 -0.562538
-2.901647 2.030269 0.434830
-2.925608 2.047962 -0.438486
-2.909238 2.037425 0.562538
-2.927329 2.051023 -0.312715
-2.922676 2.048690 0.693782
-2.905810 2.037790 -0.186002
-2.933704 2.058282 0.827370
-2.918307 2.048406 -0.062235
-2.926383 2.055004 0.958148
-2.431175 1.708024 -0.796127
-2.921885 2.053749 0.062340
-2.585558 1.818214 -0.729741
-2.912507 2.049104 0.186630
-2.717981 1.913154 -0.646079
-2.919152 2.055732 0.312366
-2.917992 2.055892 -0.565354
-2.901054 2.044929 0.435805
-2.921686 2.060450 -0.438973
-2.913384 2.055571 0.564728
-2.915224 2.057846 -0.312192
-2.925061 2.065770 0.696071
-2.908377 2.054962 -0.186630
-2.920023 2.064170 0.825570
-2.914270 2.061080 -0.062305
-2.933227 2.075472 0.962807
-2.432932 1.722293 -0.798716
-2.919414 2.067658 0.062445
-2.577446 1.826327 -0.729291
-2.914933 2.066443 0.187258
-2.701510 1.916052 -0.643790
-2.913403 2.067316 0.312540
-2.925115 2.076610 -0.568170
-2.913140 2.069089 0.438730
-2.927241 2.080089 -0.440923
-2.904401 2.064837 0.564416
-2.922455 2.078656 -0.313761
-2.930448 2.085329 0.699124
-2.914022 2.074622 -0.187467
-2.934841 2.090432 0.831869
-2.913390 2.076136 -0.062445
-2.930501 2.089318 0.964360
-2.422036 1.727621 -0.797163
-2.916892 2.081559 0.062549
-2.569329 1.834377 -0.728841
-2.923807 2.088420 0.188305
-2.691485 1.923363 -0.643026
-2.909286 2.079965 0.312889
-2.924161 2.091564 -0.569421
-2.923555 2.092096 0.441411
-2.932783 2.099667 -0.442873
-2.908338 2.083125 0.566606
-2.907015 2.083138 -0.312889
-2.935859 2.104776 0.702177
-2.922947 2.096485 -0.188514
-2.940158 2.109801 0.835468
-2.915849 2.093322 -0.062654
-2.924748 2.100677 0.964877
-2.433247 1.748466 -0.802857
-2.896618 2.082390 0.062270
-2.548672 1.833093 -0.724792
-2.916499 2.098613 0.188305
-2.681568 1.930453 -0.642263
-2.906858 2.093601 0.313412
-2.918445 2.102914 -0.569734
-2.909794 2.097645 0.440436
-2.931877 2.114536 -0.443848
-2.907457 2.097888 0.567857
-4.576559 3.303755 -0.493824
-2.930085 2.116161 0.702559
-4.583062 3.311492 -0.296326
-2.951727 2.133751 0.840867
-2.919867 2.111690 -0.062898
-2.933049 2.122198 0.970054
-2.439648 1.766011 -0.806998
-4.572076 3.311152 0.098536
-2.532789 1.835118 -0.722093
-4.573148 3.314971 0.296012
-2.682760 1.945564 -0.644171
-4.570230 3.315899 0.493999
-2.927073 2.124692 -0.572863
-4.558475 3.310407 0.691730
-2.934113 2.131758 -0.445311
-4.561890 3.315928 0.893241
-4.545663 3.305649 -0.491733
-2.938556 2.137926 0.706375
-4.542408 3.306313 -0.294442
-2.950562 2.148630 0.842667
-4.564283 3.325283 -0.098571
-2.939673 2.142665 0.974713
-2.441274 1.780207 -0.809586
-4.542720 3.314127 0.098152
-2.515350 1.835906 -0.718944
-4.545419 3.319135 0.294965
-2.668026 1.949126 -0.642263
-4.550585 3.325953 0.493127
-2.932395 2.144224 -0.575366
-4.538881 3.320438 0.690512
-2.926654 2.141987 -0.445311
-4.537537 3.322496 0.890738
-4.530882 3.319141 -0.491384
-2.954828 2.165578 0.712099
-4.521175 3.315063 -0.293814
-2.952472 2.165832 0.845366
-4.523630 3.319898 -0.097943
-2.946191 2.163203 0.979371
-2.435045 1.788718 -0.809586
-4.519844 3.321674 0.097908
-2.526196 1.857373 -0.723892
-4.509672 3.317230 0.293395
-2.648556 1.949118 -0.639210
-4.519694 3.327642 0.491035
-2.940797 2.166163 -0.578495
-4.509684 3.323308 0.687831
-2.928746 2.159258 -0.446773
-4.510015 3.326589 0.887609
-4.493618 3.316008 -0.488595
-2.951989 2.179378 0.713244
-4.496724 3.321332 -0.292977
-2.951163 2.180758 0.847166
-4.499150 3.326159 -0.097664
-2.946388 2.179218 0.981959
-2.427233 1.796058 -0.809068
-4.514651 3.342190 0.098048
-2.551018 1.889377 -0.732891
-4.472389 3.313926 0.291721
-2.648045 1.963028 -0.640737
-4.466443 3.312540 0.486503
-2.936391 2.178769 -0.579120
-4.488493 3.331930 0.686368
-2.935534 2.180120 -0.448967
-4.482519 3.330530 0.884480
-4.454832 3.311467 -0.485632
-2.950665 2.194355 0.714770
-4.478693 3.332239 -0.292558
-2.959165 2.202682 0.851665
-4.477889 3.334677 -0.097454
-2.937214 2.188335 0.981442
-2.425596 1.807983 -0.810621
-0.000000 0.000000 0.000000
-2.564712 1.913419 -0.738739
-4.455993 3.325934 0.291407
-2.644322 1.974609 -0.641500
-4.446872 3.322149 0.485632
-2.933514 2.192553 -0.580059
-4.457757 3.333312 0.683443
-2.948570 2.205812 -0.452135
-4.447144 3.328402 0.879787
-4.433677 3.319832 -0.484586
-2.950844 2.210527 0.716679
-4.444659 3.331083 -0.291093
-2.959254 2.218843 0.853914
-4.447025 3.335888 -0.097035
-2.945009 2.210170 0.986618
-2.433174 1.826878 -0.815280
-0.000000 0.000000 0.000000
-2.559575 1.923530 -0.739189
-4.444356 3.341468 0.291407
-2.646827 1.990908 -0.643790
-4.420921 3.326869 0.484063
-2.935312 2.209909 -0.581936
-4.427067 3.334520 0.680518
-2.945609 2.219675 -0.452866
-4.444963 3.351040 0.881665
-4.412517 3.328090 -0.483540
-2.946244 2.223179 0.717442
-4.412282 3.330934 -0.289732
-2.954600 2.231508 0.854814
-4.435354 3.351391 -0.097035
-2.954227 2.233252 0.992312
-2.434486 1.841187 -0.817868
-0.000000 0.000000 0.000000
-2.555995 1.934750 -0.740089
-0.000000 0.000000 0.000000
-2.641514 2.001206 -0.644171
-4.406288 3.339633 0.483714
-2.948188 2.235465 -0.586004
-4.401423 3.338819 0.678325
-2.939618 2.230887 -0.453110
-4.414689 3.351766 0.877910
-4.385372 3.330941 -0.481797
-2.944986 2.237848 0.718968
-4.385166 3.333652 -0.288685
-2.956418 2.248468 0.857513
-4.398680 3.346803 -0.096477
-2.960616 2.253599 0.996971
-2.432978 1.852761 -0.819421
-0.000000 0.000000 0.000000
-2.549565 1.943215 -0.740089
-0.000000 0.000000 0.000000
-2.647350 2.019480 -0.647224
-4.358760 3.326426 0.479705
-2.953319 2.254820 -0.588506
-4.369818 3.337732 0.675156
-2.949555 2.253881 -0.455791
-4.365886 3.337595 0.870401
-4.361641 3.335782 -0.480402
-2.964056 2.267883 0.725456
-4.366157 3.342105 -0.288162
-2.962870 2.268923 0.861563
-4.371683 3.349210 -0.096128
-2.959259 2.268105 0.999042
-2.428353 1.861995 -0.819939
-0.000000 0.000000 0.000000
-2.547660 1.955330 -0.741439
-0.000000 0.000000 0.000000
-2.652917 2.038047 -0.650277
-0.000000 0.000000 0.000000
-2.948661 2.267395 -0.589132
-4.345627 3.343186 0.673206
-2.957400 2.276271 -0.458229
-4.344745 3.345678 0.868524
-4.330885 3.336585 -0.478311
-2.965302 2.285600 0.727746
-4.338356 3.345509 -0.287115
-2.970112 2.291478 0.866062
-4.343696 3.352802 -0.095779
-2.949447 2.277691 0.998524
-2.439857 1.885056 -0.826150
-0.000000 0.000000 0.000000
-2.531227 1.957501 -0.738739
-0.000000 0.000000 0.000000
-2.685794 2.079002 -0.660199
-0.000000 0.000000 0.000000
-2.946577 2.283026 -0.590384
-4.325500 3.353011 0.671988
-2.961586 2.296828 -0.460179
-4.312165 3.345837 0.864457
-4.306036 3.342662 -0.476916
-2.956905 2.296453 0.727746
-4.310293 3.349133 -0.286068
-2.977079 2.314309 0.870561
-4.315593 3.356423 -0.095430
-2.962424 2.305095 1.005771
-2.448176 1.905853 -0.831327
-0.000000 0.000000 0.000000
-2.520961 1.964370 -0.737839
-0.000000 0.000000 0.000000
-2.803549 2.186632 -0.691110
-0.000000 0.000000 0.000000
-2.950646 2.303535 -0.592887
-4.286586 3.348069 0.667844
-2.967226 2.318668 -0.462372
-4.274973 3.342153 0.859451
-4.287478 3.353512 -0.476219
-2.953106 2.310905 0.728890
-4.274400 3.346441 -0.284498
-2.974713 2.330011 0.872360
-4.300114 3.369751 -0.095360
-2.961558 2.321897 1.008359
-2.453334 1.924351 -0.835468
-4.286785 3.364064 0.095116
-2.521408 1.979614 -0.740089
-0.000000 0.000000 0.000000
-2.931356 2.303644 -0.724693
-0.000000 0.000000 0.000000
-2.954604 2.324105 -0.595390
-4.263366 3.355164 0.666138
-2.958707 2.329528 -0.462372
-4.261143 3.356577 0.859138
-4.259509 3.356872 -0.474476
-2.958492 2.332653 0.732325
-4.249561 3.352189 -0.283661
-2.969213 2.343313 0.873260
-4.265762 3.368140 -0.094871
-2.969703 2.345908 1.014053
-2.449972 1.934871 -0.836503
-4.237986 3.348461 0.094278
-2.524046 1.995160 -0.742788
-4.261128 3.369767 0.284708
-2.951515 2.335151 -0.731562
-4.261769 3.373298 0.475522
-2.962520 2.345960 -0.598518
-4.236914 3.356632 0.663700
-2.960504 2.346467 -0.463835
-4.227102 3.351862 0.854445
-4.229991 3.355656 -0.472384
-2.971012 2.357963 0.737286
-4.232605 3.360740 -0.283242
-2.973967 2.362423 0.876859
-4.236300 3.366688 -0.094452
-2.966829 2.358866 1.015606
-2.450762 1.949424 -0.839091
-4.188719 3.333350 0.093440
-2.529262 2.013669 -0.746388
-4.224343 3.364711 0.283033
-2.958700 2.357675 -0.735378
-4.218810 3.363314 0.472036
-2.960490 2.361214 -0.599770
-4.302754 3.433307 0.675887
-2.966258 2.367933 -0.466028
-4.207658 3.360433 0.852881
-4.194904 3.351746 -0.469769
-2.968898 2.373223 0.738812
-4.214609 3.370504 -0.282824
-2.987005 2.389834 0.883158
-4.221400 3.378956 -0.094383
-2.964609 2.374038 1.017676
-2.468065 1.977293 -0.847374
-4.166135 3.339196 0.093196
-2.523738 2.023704 -0.746838
-4.237499 3.399433 0.284708
-2.968825 2.382734 -0.739957
-4.169759 3.348081 0.467852
-2.961470 2.378956 -0.601647
-4.213377 3.386129 0.663700
-2.973445 2.390711 -0.468466
-4.202060 3.380052 0.854132
-4.172313 3.357624 -0.468549
-2.963654 2.386034 0.739576
-4.177931 3.365150 -0.281149
-2.993819 2.412474 0.887657
-4.190898 3.378610 -0.093964
-2.966830 2.392861 1.021300
-2.549852 2.057471 -0.877914
-4.148230 3.348694 0.093056
-2.525755 2.039848 -0.749537
-4.225607 3.414204 0.284708
-2.975758 2.405425 -0.743773
-4.189031 3.387673 0.471338
-2.962362 2.396734 -0.603524
-4.173758 3.378335 0.659313
-2.971253 2.406073 -0.469441
-4.165677 3.374804 0.849126
-4.154376 3.367150 -0.467852
-2.967506 2.406257 0.742629
-4.149097 3.365872 -0.279997
-2.988406 2.425366 0.888557
-4.179078 3.393218 -0.093964
-2.973454 2.415383 1.026476
-2.963931 2.408722 -1.023371
-4.128758 3.356846 0.092882
-2.535249 2.062178 -0.754486
-0.000000 0.000000 0.000000
-2.973434 2.420755 -0.745300
-4.137015 3.369560 0.466806
-2.969291 2.419538 -0.606653
-4.149631 3.382849 0.657363
-2.967451 2.420194 -0.470172
-4.132444 3.371841 0.844746
-4.127163 3.369032 -0.466109
-2.974295 2.429019 0.746445
-4.128043 3.372752 -0.279369
-2.988974 2.443182 0.891256
-4.142441 3.387531 -0.093405
-2.981452 2.439204 1.032170
-2.974940 2.434960 -1.030100
-4.098449 3.356035 0.092463
-2.562707 2.099419 -0.764834
-4.163050 3.411970 0.282091
-2.977111 2.441078 -0.748353
-4.134470 3.391563 0.467852
-2.980678 2.446179 -0.610720
-4.137798 3.397314 0.657363
-2.972790 2.441877 -0.472366
-4.111492 3.378720 0.842869
-4.109221 3.378356 -0.465412
-2.987026 2.456846 0.751787
-4.106991 3.379527 -0.278741
-2.993968 2.464748 0.895305
-4.115155 3.389257 -0.093056
-2.972919 2.449596 1.032170
-2.969403 2.447787 -1.031135
-4.082118 3.366459 0.092358
-2.639587 2.177746 -0.790028
-4.101936 3.385661 0.278741
-2.980789 2.461326 -0.751406
-4.113575 3.398136 0.466806
-2.978373 2.461408 -0.611972
-4.089456 3.381064 0.651514
-2.972111 2.458307 -0.473584
-4.090875 3.385093 0.840992
-4.076287 3.374446 -0.462971
-2.987800 2.474414 0.754077
-4.086386 3.385661 -0.278113
-2.988698 2.477247 0.896205
-4.088426 3.390210 -0.092707
-2.978134 2.470574 1.036829
-2.976135 2.469958 -1.036311
-4.064778 3.374868 0.092219
-2.969640 2.466647 -0.891256
-4.090686 3.399245 0.278741
-2.984689 2.481238 -0.754459
-4.071647 3.386278 0.463320
-2.979305 2.478852 -0.613849
-4.078222 3.394607 0.651514
-2.988349 2.488474 -0.477484
-4.067485 3.388525 0.838489
-4.058953 3.382842 -0.462274
-2.982594 2.486823 0.754840
-4.061332 3.387679 -0.277171
-2.998422 2.502128 0.901604
-4.071021 3.398623 -0.092568
-2.984752 2.492820 1.042005
-2.981271 2.490962 -1.040970
-4.033545 3.371745 0.091765
-2.974790 2.487862 -0.895305
-0.000000 0.000000 0.000000
-2.992786 2.505244 -0.758657
-0.000000 0.000000 0.000000
-2.981342 2.497987 -0.616039
-4.022304 3.371751 0.644445
-2.984208 2.502717 -0.478215
-4.057071 3.404061 0.838802
-4.034763 3.386919 -0.460880
-2.987262 2.508777 0.758275
-4.033894 3.389341 -0.276125
-2.995362 2.517921 0.903403
-4.040320 3.397899 -0.092149
-2.988954 2.514872 1.046664
-2.983944 2.511825 -1.045111
-4.011982 3.378777 0.091555
-2.985025 2.515072 -0.901154
-0.000000 0.000000 0.000000
-2.992589 2.523790 -0.760946
-0.000000 0.000000 0.000000
-2.988771 2.522914 -0.619480
-4.009919 3.386471 0.644445
-2.982596 2.520043 -0.479434
-4.014395 3.393403 0.832544
-4.011673 3.392678 -0.459659
-2.996032 2.534926 0.762854
-4.010773 3.395070 -0.275392
-2.995036 2.536439 0.906103
-4.014108 3.401051 -0.091835
-3.001822 2.544548 1.054429
-2.983558 2.530241 -1.048217
-4.036204 3.424464 0.092393
-2.987727 2.536019 -0.904753
-0.000000 0.000000 0.000000
-2.995399 2.544780 -0.763999
-0.000000 0.000000 0.000000
-2.985689 2.538775 -0.620732
-3.987156 3.391836 0.642739
-2.984143 2.539705 -0.481140
-3.987225 3.394895 0.829416
-3.978349 3.388835 -0.457219
-3.003463 2.559539 0.767052
-3.991150 3.402745 -0.274868
-3.000907 2.559622 0.910602
-3.982362 3.398255 -0.091381
-2.995832 2.557552 1.055464
-2.974708 2.540641 -1.048217
-3.981658 3.402160 0.091416
-2.993669 2.559095 -0.909252
-0.000000 0.000000 0.000000
-2.992465 2.560326 -0.765526
-0.000000 0.000000 0.000000
-2.997814 2.567170 -0.625112
-3.976799 3.407025 0.642983
-2.990332 2.563024 -0.483578
-3.963354 3.398505 0.826913
-3.955911 3.393621 -0.455999
-3.003449 2.577679 0.769342
-3.974702 3.412753 -0.274554
-3.006737 2.582779 0.915101
-3.967443 3.409528 -0.091311
-2.986886 2.567994 1.055464
-2.981932 2.564866 -1.053911
-3.939480 3.389908 0.090718
-2.993636 2.577093 -0.911952
-0.000000 0.000000 0.000000
-2.999982 2.584722 -0.769723
-3.953977 3.408092 0.456696
-2.993492 2.581293 -0.626051
-3.945603 3.403726 0.639814
-3.004134 2.592641 -0.487234
-3.932364 3.395149 0.822845
-0.000000 0.000000 -0.000000
-3.005142 2.596773 0.772013
-3.937527 3.403883 -0.272775
-3.020180 2.611955 0.921849
-3.937893 3.407052 -0.090892
-3.000236 2.596882 1.063229
-2.985093 2.584857 -1.058052
-3.362940 2.913263 0.077663
-2.986546 2.588282 -0.912401
-0.000000 0.000000 0.000000
-3.004742 2.606234 -0.773158
-3.467128 3.008554 0.401614
-2.989391 2.595090 -0.626989
-0.000000 0.000000 0.000000
-3.000015 2.606495 -0.487965
-3.399267 2.954612 0.713341
-3.385827 2.944163 -0.392549
-3.006883 2.615744 0.774685
-3.338641 2.905563 -0.231953
-3.020320 2.629634 0.924549
-3.359602 2.926253 -0.077768
-3.003260 2.616970 1.067370
-2.991067 2.607436 -1.063229
-3.323072 2.898166 0.076965
-2.986672 2.605956 -0.915101
-3.311710 2.890866 0.230383
-3.009221 2.628002 -0.776593
-3.332353 2.911513 0.387146
-2.995386 2.618282 -0.630118
-3.320345 2.903641 0.541587
-2.991013 2.616820 -0.487965
-3.317666 2.903917 0.698323
-3.326098 2.912612 -0.386797
-3.016917 2.643059 0.779646
-3.317901 2.908057 -0.231220
-3.006626 2.636421 0.923199
-3.334175 2.924958 -0.077419
-3.011343 2.642941 1.073581
-2.994784 2.629593 -1.067887
-3.338221 2.932473 0.077558
-2.993430 2.630776 -0.920050
-3.320844 2.919841 0.231744
-3.005695 2.643939 -0.778119
-3.314436 2.916836 0.386274
-3.002307 2.643341 -0.633560
-3.315893 2.920750 0.542562
-2.996524 2.640630 -0.490402
-3.311700 2.919688 0.699262
-3.314161 2.923176 -0.386623
-3.022162 2.666826 0.783462
-3.335923 2.945024 -0.233209
-3.011780 2.660062 0.927698
-3.338673 2.950110 -0.077768
-3.006210 2.657537 1.075134
-2.992592 2.646691 -1.070476
-3.327724 2.944380 0.077558
-3.002996 2.658229 -0.925899
-3.326872 2.946215 0.232895
-3.003621 2.661120 -0.780027
-3.313004 2.936515 0.387320
-3.006219 2.665764 -0.636375
-3.323353 2.948278 0.545487
-3.009443 2.670969 -0.494058
-3.316147 2.944472 0.702391
-3.321716 2.950713 -0.388715
-3.018631 2.682658 0.784988
-3.337499 2.967340 -0.234046
-3.019906 2.686150 0.933097
-3.338780 2.971088 -0.078012
-3.004115 2.674454 1.077723
-2.997761 2.669969 -1.075652
-3.333849 2.970612 0.077942
-3.005337 2.679069 -0.929498
-3.337436 2.976421 0.234360
-3.007498 2.683352 -0.783462
-3.319084 2.962656 0.389238
-3.005736 2.684136 -0.638253
-3.318963 2.965151 0.546462
-3.011942 2.692041 -0.496008
-3.329409 2.977097 0.707397
-3.317335 2.967603 -0.389412
-3.019489 2.702344 0.787660
-3.339025 2.989630 -0.234884
-3.029381 2.713578 0.938946
-3.349238 3.001408 -0.078501
-3.009145 2.697819 1.082899
-3.008557 2.698476 -1.082899
-3.332405 2.990226 0.078152
-3.000346 2.693416 -0.930847
-3.334504 2.994671 0.234884
-3.012776 2.706889 -0.787278
-3.331030 2.994112 0.391852
-3.005249 2.702439 -0.640130
-3.319037 2.985885 0.548168
-3.008546 2.707719 -0.496983
-3.329420 2.997790 0.709587
-3.314521 2.985652 -0.390283
-3.021868 2.723201 0.790712
-3.330249 3.002387 -0.234988
-3.022978 2.726532 0.939846
-3.350847 3.023543 -0.078780
-3.017140 2.723595 1.089111
-3.013693 2.721647 -1.088075
-3.328144 3.006912 0.078291
-3.007065 2.717986 -0.935796
-3.313923 2.996625 0.234151
-3.018105 2.730298 -0.791094
-3.326730 3.010779 0.392549
-3.015071 2.729887 -0.644197
-3.314740 3.002495 0.549143
-3.012552 2.729939 -0.499177
-3.314807 3.005124 0.708648
-3.291058 2.984869 -0.388715
-3.031484 2.750620 0.795674
-3.318532 3.012361 -0.234884
-3.025222 2.747286 0.943445
-3.327217 3.022827 -0.078466
-3.026437 2.750740 1.095840
-3.018705 2.744885 -1.093252
-3.326750 3.026314 0.078501
-3.016503 2.745288 -0.941645
-3.322855 3.025421 0.235512
-3.014541 2.745908 -0.792621
-3.304600 3.011438 0.391155
-3.017351 2.750878 -0.646700
-3.313187 3.021911 0.550606
-3.014855 2.751012 -0.501127
-3.313166 3.024541 0.710525
-3.252764 2.970703 -0.385403
-3.042230 2.779642 0.801016
-3.330175 3.044067 -0.236454
-3.027164 2.768301 0.947044
-3.331432 3.047885 -0.078815
-3.026807 2.770401 1.099463
-3.010530 2.756710 -1.093769
-3.344182 3.063573 0.079164
-3.024142 2.771601 -0.947044
-3.335828 3.058598 0.237187
-3.019405 2.769685 -0.796437
-3.311683 3.039121 0.393247
-3.020826 2.773417 -0.649516
-3.336244 3.064343 0.556212
-3.019851 2.774950 -0.503564
-3.331673 3.062826 0.716783
-3.145587 2.893023 -0.373898
-3.039733 2.796891 0.802924
-3.343041 3.077316 -0.238129
-3.036117 2.796012 0.952893
-3.359010 3.094724 -0.079723
-3.022800 2.786187 1.101534
-3.015091 2.780298 -1.098946
-3.342286 3.083363 0.079374
-3.021609 2.788749 -0.949293
-3.342740 3.086482 0.238443
-3.028467 2.797526 -0.801398
-3.327393 3.075003 0.396384
-3.019830 2.791991 -0.651393
-3.338643 3.088101 0.558405
-3.026173 2.800305 -0.506245
-3.339806 3.091882 0.720850
-3.059458 2.833585 -0.364834
-3.031391 2.808819 0.803306
-3.390868 3.143278 -0.242315
-3.046343 2.825145 0.959191
-3.370176 3.126832 -0.080246
-3.031463 2.813807 1.108263
-3.022355 2.806581 -1.105157
-3.360804 3.122232 0.080072
-3.018993 2.805913 -0.951543
-3.365587 3.129412 0.240850
-3.038808 2.826801 -0.806740
-3.345809 3.113745 0.399871
-3.027415 2.818668 -0.655148
-3.342369 3.113267 0.560843
-3.023641 2.817618 -0.507464
-3.349221 3.122380 0.725230
-3.144255 2.932578 -0.376164
-3.043100 2.839474 0.809030
-3.649974 3.407230 -0.261680
-3.045008 2.843742 0.961891
-3.429377 3.204106 -0.081922
-3.037147 2.838882 1.113957
-3.030389 2.834796 -1.111887
-3.374158 3.157758 0.080665
-3.022914 2.830278 -0.956042
-3.377417 3.163573 0.242525
-3.035589 2.844632 -0.808649
-3.364898 3.154604 0.403531
-3.028590 2.840556 -0.657650
-3.349755 3.143154 0.564011
-3.024872 2.839551 -0.509414
-3.353594 3.149510 0.728672
-3.159622 2.968640 -0.379302
-3.046977 2.864055 0.812846
-3.553072 3.341227 -0.255609
-3.045920 2.865566 0.965490
-3.617105 3.404418 -0.086704
-3.037973 2.860590 1.118098
-3.034537 2.858603 -1.117063
-3.387855 3.192832 0.081258
-3.030031 2.856855 -0.961441
-3.369259 3.178084 0.242734
-3.031353 2.860600 -0.810175
-3.365456 3.177272 0.404926
-3.041633 2.872812 -0.662656
-3.358962 3.173915 0.567424
-3.030810 2.865092 -0.512095
-3.336839 3.155767 0.727420
-3.110164 2.942679 -0.374595
-3.051219 2.888170 0.816663
-3.496431 3.311037 -0.252364
-3.051460 2.890923 0.970439
-3.608102 3.419774 -0.086773
-3.047595 2.889786 1.125345
-3.030146 2.874496 -1.119134
-3.373805 3.201867 0.081189
-3.032791 2.879457 -0.965490
-3.381367 3.211778 0.244409
-3.035643 2.884622 -0.813991
-3.361651 3.195773 0.405797
-3.041701 2.892842 -0.664846
-3.353737 3.190966 0.568399
-3.033856 2.887841 -0.514289
-3.337402 3.178131 0.729923
-3.040890 2.897003 -0.367449
-3.052662 2.909456 0.819715
-3.600708 3.433255 -0.260738
-3.057067 2.916137 0.975388
-3.447398 3.289876 -0.083178
-3.033535 2.896156 1.123792
-3.039904 2.903473 -1.126380
-3.358551 3.209186 0.081084
-3.035651 2.901882 -0.969539
-3.373304 3.226029 0.244618
-3.041412 2.909866 -0.818189
-3.347877 3.204440 0.405449
-3.040398 2.911375 -0.666724
-3.347158 3.206482 0.569130
-3.044075 2.917379 -0.517701
-3.319437 3.182635 0.728359
-3.042516 2.918369 -0.368843
-3.056908 2.933422 0.823532
-3.501115 3.361116 -0.254353
-3.065396 2.944073 0.981236
-3.365526 3.233701 -0.081468
-3.050123 2.931900 1.133627
-3.042537 2.925854 -1.131039
-3.344710 3.217843 0.081014
-3.029938 2.916283 -0.970889
-3.350742 3.226463 0.243781
-3.046981 2.935249 -0.822387
-3.335429 3.214524 0.405274
-3.044597 2.935515 -0.669852
-3.334674 3.216604 0.568886
-3.045428 2.938882 -0.519651
-3.309851 3.195448 0.728672
-3.071099 2.966244 -0.373550
-3.053789 2.950813 0.825440
-3.330041 3.219154 -0.242734
-3.066355 2.965544 0.984836
-3.349942 3.241221 -0.081363
-3.042662 2.945200 1.134663
-3.051734 2.955271 -1.138286
-3.352128 3.247587 0.081468
-3.036531 2.943117 -0.976288
-3.359533 3.257604 0.245246
-3.047989 2.956803 -0.825440
-3.349924 3.251124 0.408412
-3.044252 2.955758 -0.672042
-3.357600 3.261420 0.574736
-3.036574 2.950878 -0.519895
-3.264684 3.173935 0.721163
-3.076437 2.992227 -0.375467
-3.063169 2.980623 0.830782
-3.350268 3.261408 -0.245037
-3.060173 2.980308 0.986185
-3.377278 3.290573 -0.082306
-3.058647 2.981423 1.144498
-3.044166 2.968603 -1.139321
-3.399475 3.316504 0.082899
-3.047191 2.974083 -0.983036
-3.383921 3.304140 0.247863
-3.043332 2.972846 -0.826966
-3.381392 3.304482 0.413641
-3.049551 2.981457 -0.675484
-3.411600 3.336842 0.585948
-3.044830 2.979376 -0.523063
-3.150694 3.084277 0.698323
-3.067561 3.004174 -0.375641
-3.071156 3.008975 0.835743
-3.413248 3.345564 -0.250480
-3.062486 3.003035 0.990235
-3.390291 3.325892 -0.082899
-3.052603 2.995892 1.146051
-3.043694 2.988421 -1.142945
-3.495163 3.433151 0.085517
-3.056510 3.003559 -0.989335
-3.499415 3.440254 0.257179
-3.055592 3.005213 -0.833072
-3.485162 3.429159 0.427760
-3.054871 3.007062 -0.678926
-3.510547 3.457077 0.604959
-3.064368 3.018978 -0.528182
-3.061393 3.017330 0.680803
-3.074343 3.031384 -0.377733
-3.074874 3.033197 0.839560
-3.434538 3.389428 -0.252887
-3.071662 3.032608 0.996533
-3.468583 3.425940 -0.085098
-3.063001 3.026632 1.153815
-3.048619 3.013702 -1.148639
-3.233183 3.197582 0.079374
-3.054516 3.022234 -0.992034
-3.283174 3.249928 0.242106
-3.063350 3.033687 -0.838033
-3.283626 3.253285 0.404403
-3.052840 3.025984 -0.680803
-3.244778 3.217672 0.561086
-3.058039 3.033850 -0.528913
-3.070437 3.047513 0.685183
-3.077815 3.056202 -0.379476
-3.075311 3.055082 0.842613
-3.205795 3.186133 -0.236873
-3.074711 3.057219 1.001032
-3.213950 3.197096 -0.079129
-3.060401 3.045714 1.156921
-3.055613 3.042310 -1.155368
-3.187719 3.175260 0.078536
-3.054726 3.044148 -0.995633
-3.193732 3.184096 0.236349
-3.069156 3.061265 -0.842613
-3.180293 3.173536 0.393072
-3.058769 3.053635 -0.684557
-3.178467 3.174552 0.551581
-3.058398 3.055997 -0.530863
-3.065102 3.064066 0.686434
-3.073904 3.074239 -0.380348
-3.071299 3.073008 0.844521
-3.173202 3.176388 -0.235302
-3.074768 3.079232 1.004631
-3.198252 3.204329 -0.079024
-3.071315 3.078527 1.165203
-3.061078 3.069638 -1.161580
-3.172138 3.182362 0.078431
-3.059012 3.070177 -1.000582
-3.168330 3.181247 0.235302
-3.062473 3.076267 -0.843757
-3.166281 3.181897 0.392724
-3.068921 3.085368 -0.689250
-3.163133 3.181439 0.550849
-3.056108 3.075103 -0.532325
-3.058598 3.078917 0.687373
-3.082875 3.104677 -0.382788
-3.078634 3.101725 0.849482
-3.150980 3.175964 -0.234465
-3.072403 3.098082 1.007331
-3.156286 3.184021 -0.078257
-3.081183 3.109579 1.172968
-3.062848 3.092391 -1.166239
-3.140185 3.171823 0.077908
-3.066365 3.098577 -1.006431
-3.136416 3.170713 0.233732
-3.069930 3.104821 -0.848718
-3.137227 3.174232 0.390458
-3.073673 3.111253 -0.692692
-3.135549 3.175236 0.547925
-3.067937 3.108090 -0.536225
-3.056426 3.097746 0.689250
-3.073690 3.116569 -0.382962
-3.092869 3.137350 0.856351
-3.107910 3.153950 -0.232058
-3.078251 3.125180 1.012730
-3.111761 3.160545 -0.077419
-3.078712 3.128309 1.176074
-3.064499 3.115192 -1.170897
-3.102716 3.155418 0.077244
-3.069427 3.122927 -1.010930
-3.097560 3.152926 0.231639
-3.070282 3.126524 -0.851771
-3.095614 3.153696 0.386623
-3.069882 3.128846 -0.694256
-3.100974 3.161915 0.543781
-3.068322 3.129987 -0.538175
-3.058156 3.120978 0.692066
-3.081019 3.145683 -0.385228
-3.092972 3.159266 0.859404
-3.106730 3.174704 -0.232790
-3.091903 3.160932 1.020828
-3.088162 3.158486 -0.077105
-3.069141 3.140402 1.176591
-3.075205 3.147981 -1.179180
-3.081903 3.156214 0.077000
-3.078925 3.154541 -1.017679
-3.093509 3.170867 0.232162
-3.078539 3.156900 -0.857114
-3.074851 3.154495 0.385403
-3.072727 3.153691 -0.697385
-3.085763 3.168454 0.543050
-3.075379 3.159170 -0.541344
-3.065151 3.150039 0.696133
-3.089467 3.176414 -0.387669
-3.087400 3.175674 0.860930
-3.076142 3.165476 -0.231325
-3.102575 3.194071 1.028026
-3.089655 3.182159 -0.077419
-3.091796 3.185754 1.189532
-3.078995 3.173949 -1.184874
-3.075043 3.171260 0.077105
-3.071964 3.169467 -1.019028
-3.085201 3.184515 0.232372
-3.086621 3.187372 -0.862457
-3.070750 3.172367 0.386274
-3.080929 3.184273 -0.701765
-3.069164 3.173498 0.542075
-3.085028 3.191295 -0.545000
-3.078845 3.186289 0.701765
-3.078361 3.187179 -0.387669
-3.095386 3.206206 0.866273
-3.073395 3.184818 -0.231953
-3.103583 3.217505 1.032075
-3.082692 3.197243 -0.077524
-3.100765 3.217392 1.197297
-3.088001 3.205547 -1.192638
-3.080599 3.199260 0.077524
-3.078449 3.198423 -1.024877
-3.071297 3.192386 0.232162
-3.086363 3.209447 -0.865510
-3.076226 3.200303 0.388366
-3.082113 3.207828 -0.704581
-3.067693 3.194214 0.543781
-3.079369 3.207772 -0.545975
-3.073174 3.202718 0.703016
-3.094800 3.226663 -0.391155
-3.103197 3.236832 0.871615
-3.077460 3.211389 -0.233104
-3.097725 3.233948 1.033875
-3.090874 3.228205 -0.078012
-3.097530 3.236570 1.200403
-3.084805 3.224682 -1.195744
-3.098435 3.240345 0.078257
-3.090156 3.233099 -1.032525
-3.080830 3.224750 0.233732
-3.087344 3.232980 -0.868944
-3.084296 3.231199 0.390806
-3.091351 3.240005 -0.709274
-3.079815 3.229324 0.547925
-3.087329 3.238617 -0.549387
-3.082417 3.234877 0.707710
-3.104129 3.259087 -0.393770
-3.108124 3.264707 0.876195
-3.092391 3.249602 -0.235093
-3.105221 3.264509 1.040174
-3.093366 3.253467 -0.078361
-3.102183 3.264167 1.206614
-3.070869 3.232629 -1.194709
-3.107759 3.272892 0.078780
-3.074827 3.239625 -1.031176
-3.094298 3.261565 0.235616
-3.080093 3.248011 -0.870089
-3.094929 3.265081 0.393595
-3.086816 3.257946 -0.710838
-3.094459 3.267440 0.552556
-3.085558 3.259465 -0.551093
-3.091471 3.267140 0.712403
-3.089996 3.267008 -0.393421
-3.106150 3.285523 0.878866
-3.097491 3.277796 -0.236349
-3.104512 3.286662 1.043773
-3.090227 3.272969 -0.078571
-3.098726 3.283405 1.209720
-3.047636 3.230681 -1.190050
-3.088102 3.274974 0.078571
-3.056852 3.243215 -1.028926
-3.096644 3.286833 0.236663
-3.060732 3.250100 -0.867799
-3.093161 3.285936 0.394816
-3.055227 3.247021 -0.706145
-3.091320 3.286780 0.554018
-3.064786 3.259958 -0.549387
-3.099148 3.297913 0.716783
-3.062383 3.260180 -0.391329
-3.105611 3.307610 0.881919
-3.069844 3.270910 -0.235093
-3.115920 3.321420 1.051421
-3.080402 3.284960 -0.078606
-3.106011 3.313682 1.216967
-3.027377 3.231167 -1.186427
-3.060535 3.267950 0.078152
-3.033810 3.240796 -1.024877
-3.062241 3.272561 0.234884
-3.044288 3.254763 -0.866273
-3.069714 3.283346 0.393247
-3.037414 3.250184 -0.704581
-3.093666 3.311788 0.556455
-3.036061 3.251508 -0.546218
-3.106775 3.328659 0.721163
-3.051269 3.270583 -0.391329
-3.109065 3.333954 0.886117
-3.045076 3.266729 -0.234046
-3.119211 3.347689 1.056370
-3.058301 3.283718 -0.078326
-3.113145 3.344029 1.224214
-2.997938 3.221652 -1.179180
-3.043930 3.272507 0.078012
-3.013439 3.241145 -1.021728
-3.037435 3.268384 0.233837
-3.014416 3.245033 -0.860930
-3.040808 3.274877 0.390981
-3.023541 3.257706 -0.703955
-3.098451 3.339879 0.559380
-3.015387 3.251765 -0.544512
-3.106007 3.350955 0.723666
-3.034525 3.275269 -0.390632
-3.121511 3.370630 0.892986
-3.026942 3.269944 -0.233523
-3.120796 3.372809 1.060869
-3.035994 3.282595 -0.078047
-3.121142 3.376137 1.231979
-2.973563 3.217909 -1.174003
-3.024347 3.274299 0.077803
-2.992854 3.241621 -1.018578
-3.017881 3.270160 0.233209
-2.991090 3.242548 -0.857496
-3.025306 3.281077 0.390458
-3.009473 3.265335 -0.703329
-3.104259 3.369654 0.562549
-3.002673 3.260810 -0.544268
-3.106332 3.374858 0.726482
-3.010933 3.272645 -0.389063
-3.125673 3.398847 0.897566
-3.011454 3.276079 -0.233209
-3.124826 3.400902 1.066268
-3.013696 3.281391 -0.077768
-3.121096 3.399819 1.236637
-2.951863 3.216882 -1.169862
-3.006141 3.277468 0.077628
-2.976252 3.246303 -1.016779
-3.001050 3.274784 0.232790
-2.981079 3.254417 -0.857877
-2.997689 3.273984 0.388366
-2.987388 3.264163 -0.700826
-3.112576 3.402440 0.566205
-2.983235 3.262482 -0.542806
-3.109192 3.401719 0.729923
-2.984709 3.266955 -0.387146
-3.129677 3.427133 0.902145
-2.994614 3.280671 -0.232790
-3.133951 3.434822 1.073466
-2.991443 3.280070 -0.077489
-3.119621 3.422114 1.240779
-2.932809 3.218598 -1.166756
-2.987950 3.280549 0.077454
-2.960967 3.252349 -1.015429
-2.986912 3.282286 0.232581
-2.964417 3.258994 -0.856351
-2.979541 3.277057 0.387494
