X Y Z
2.596940 6.326490 1.832439
1.777721 4.328075 -1.253719
1.952874 4.751556 0.089670
2.065702 5.022962 -1.253877
1.952565 4.744916 0.268902
2.279889 5.536909 -1.163935
1.953665 4.741707 0.448678
2.301667 5.582880 -0.956440
1.957655 4.745512 0.630308
1.986715 4.812976 -0.639327
1.950888 4.723261 0.809392
1.959597 4.741415 -0.448852
2.637970 6.378855 1.341769
1.964933 4.748455 -0.269321
2.636141 6.366563 1.590854
1.969404 4.753388 -0.089810
2.618268 6.315601 1.831921
1.783935 4.300430 -1.247508
1.973281 4.753945 0.089845
2.035384 4.900541 -1.225083
1.972949 4.747293 0.269426
1.971283 4.740367 -0.997931
1.970970 4.736698 0.448852
1.968072 4.726827 -0.810956
1.970391 4.729487 0.629090
1.969895 4.725393 -0.628602
1.968124 4.718246 0.809705
1.976903 4.736384 -0.449026
2.661734 6.373231 1.342532
1.984576 4.748938 -0.269740
2.667370 6.378897 1.596253
1.989072 4.753864 -0.089950
2.637313 6.299296 1.829851
1.804907 4.308431 -1.251649
1.985998 4.737807 0.089670
1.981625 4.724482 -1.182793
1.990281 4.742219 0.269530
1.985538 4.728026 -0.996786
1.986720 4.727953 0.448678
1.982263 4.714466 -0.810018
1.986888 4.722581 0.629090
1.994850 4.738613 -0.631283
1.988416 4.720449 0.811269
1.993424 4.729455 -0.449026
2.688542 6.374755 1.344822
2.000365 4.740142 -0.269635
2.698717 6.391091 1.601652
2.005654 4.746891 -0.089950
2.662295 6.297169 1.831921
1.818430 4.298546 -1.250614
2.002498 4.730857 0.089670
1.993492 4.706791 -1.180093
2.001289 4.722403 0.268797
2.004992 4.728340 -0.998313
2.004639 4.724712 0.449026
2.000869 4.713038 -0.810956
1.997747 4.702903 0.627383
2.007289 4.722574 -0.630065
2.005423 4.715396 0.811582
2.012004 4.728077 -0.449549
2.718087 6.383557 1.348638
2.009543 4.716725 -0.268693
2.725142 6.392580 1.604351
2.020280 4.736337 -0.089880
2.684504 6.289834 1.832439
1.836084 4.299439 -1.252684
2.020159 4.727692 0.089740
2.011798 4.705355 -1.181443
2.011851 4.702710 0.268065
2.017210 4.712465 -0.996405
2.021492 4.719693 0.449201
2.021567 4.717095 -0.812833
2.018436 4.707023 0.628846
2.019437 4.706594 -0.628846
2.019122 4.703098 0.810643
2.027297 4.719371 -0.449375
2.747549 6.392307 1.352454
2.027163 4.713528 -0.268902
2.745342 6.379689 1.603451
2.033225 4.722087 -0.089740
2.712010 6.294854 1.836580
1.846882 4.284295 -1.250096
2.035471 4.718942 0.089705
2.025535 4.693091 -1.180093
2.030297 4.701303 0.268379
2.028667 4.694715 -0.994115
2.036881 4.710902 0.449026
2.037763 4.710121 -0.812833
2.036201 4.703692 0.629333
2.037227 4.703248 -0.629333
2.033776 4.692474 0.810018
2.042019 4.708677 -0.449026
2.775924 6.397160 1.355507
2.044296 4.708300 -0.269007
2.776032 6.389773 1.608400
2.045658 4.705814 -0.089566
2.734703 6.287136 1.837098
1.857200 4.267194 -1.246990
2.047141 4.700807 0.089496
2.045019 4.693138 -1.181893
2.049090 4.699680 0.268693
2.045827 4.689404 -0.994496
2.046936 4.689155 0.447632
2.052611 4.699359 -0.812208
2.053402 4.698375 0.629577
2.056018 4.701565 -0.630065
2.050143 4.685346 0.810018
2.056844 4.697870 -0.448678
2.799813 6.391028 1.356270
2.059917 4.699306 -0.268902
2.806147 6.397890 1.612899
2.059661 4.693151 -0.089461
2.750419 6.263401 1.832956
1.869753 4.255379 -1.245437
2.062732 4.691802 0.089461
2.057465 4.677052 -1.179643
2.063873 4.688843 0.268483
2.065349 4.689421 -0.996023
2.063292 4.681981 0.447632
2.068205 4.690358 -0.811895
2.064982 4.680282 0.628115
2.074020 4.697991 -0.630552
2.068082 4.681775 0.810643
2.075647 4.696129 -0.449201
2.828457 6.395580 1.359323
2.070651 4.679302 -0.268169
2.837930 6.409438 1.618298
2.076841 4.687761 -0.089496
2.771482 6.251996 1.832439
1.887729 4.255891 -1.247508
2.078286 4.682746 0.089426
2.073778 4.669842 -1.179643
2.081038 4.683435 0.268588
2.087289 4.694741 -0.998694
2.080432 4.676571 0.447806
2.084565 4.683110 -0.811895
2.077268 4.663978 0.626896
2.083134 4.674404 -0.628358
2.083607 4.672724 0.810331
2.092839 4.690674 -0.449375
2.855567 6.396424 1.361613
2.087786 4.673869 -0.268274
2.865852 6.411947 1.621447
2.096457 4.687785 -0.089636
2.797234 6.251100 1.835027
1.908889 4.263381 -1.251649
2.095462 4.677276 0.089461
2.088523 4.658995 -1.178744
2.092546 4.665174 0.267960
2.098943 4.676634 -0.996405
2.098504 4.672858 0.448155
2.101862 4.677538 -0.812208
2.095342 4.660240 0.627383
2.098827 4.665202 -0.628115
2.097702 4.659915 0.809392
2.107818 4.679592 -0.449026
2.888747 6.409513 1.366574
2.105215 4.668236 -0.268379
2.887869 6.399923 1.620997
2.112342 4.678455 -0.089601
2.819548 6.241067 1.835027
1.919356 4.245962 -1.248543
2.116304 4.678859 0.089636
2.105179 4.651493 -1.178744
2.110048 4.659477 0.268065
2.109179 4.654788 -0.993352
2.113564 4.661691 0.447806
2.120217 4.673585 -0.812833
2.113644 4.656328 0.627871
2.117148 4.661278 -0.628602
2.111909 4.646985 0.808453
2.121249 4.664766 -0.448329
2.917353 6.411645 1.369245
2.122732 4.662491 -0.268483
2.919636 6.409057 1.625946
2.122432 4.656310 -0.089321
2.839455 6.225666 1.833474
1.928119 4.225007 -1.244402
2.129709 4.663981 0.089496
2.122618 4.645703 -1.179193
2.125875 4.650081 0.267960
2.125820 4.647212 -0.993352
2.127742 4.648664 0.447283
2.134457 4.660581 -0.811895
2.131117 4.650541 0.628115
2.133812 4.653673 -0.628602
2.130994 4.644785 0.809392
2.136263 4.653525 -0.447981
2.946830 6.415439 1.372298
2.142736 4.662126 -0.268902
2.952319 6.419816 1.631345
2.140750 4.652320 -0.089391
2.860096 6.211958 1.832439
1.943223 4.218081 -1.244402
2.140523 4.643619 0.089252
2.139227 4.638079 -1.179193
2.146684 4.651512 0.268483
2.144903 4.644923 -0.994496
2.141854 4.635595 0.446760
2.146974 4.643950 -0.810331
2.146076 4.639283 0.627627
2.149615 4.644207 -0.628358
2.147599 4.637131 0.809392
2.152899 4.645852 -0.447981
2.974721 6.415541 1.374588
2.154360 4.643559 -0.268274
2.981834 6.423352 1.634944
2.159067 4.648258 -0.089461
2.884746 6.206940 1.833992
1.961717 4.222297 -1.247508
2.159720 4.645750 0.089426
2.149260 4.620546 -1.176494
2.160006 4.640935 0.268274
2.159890 4.637973 -0.994496
2.156810 4.628655 0.446760
2.165296 4.644154 -0.811582
2.157687 4.625133 0.626652
2.162920 4.633644 -0.627871
2.165068 4.635542 0.810331
2.169576 4.642486 -0.448329
2.998746 6.413016 1.376114
2.164264 4.625724 -0.267646
3.009168 6.427810 1.638543
2.175761 4.644884 -0.089531
2.903953 6.195844 1.833474
1.976811 4.215251 -1.247508
2.178027 4.641613 0.089496
2.166606 4.614590 -1.176944
2.171502 4.622331 0.267646
2.176470 4.630216 -0.994496
2.180141 4.635332 0.448155
2.181058 4.634590 -0.811269
2.176759 4.622771 0.627383
2.176946 4.620489 -0.627140
2.181639 4.627766 0.810331
2.187873 4.638298 -0.448678
3.031728 6.423551 1.380694
2.187623 4.632399 -0.268483
3.035477 6.424050 1.640343
2.191511 4.635262 -0.089496
2.930233 6.194146 1.836062
1.991054 4.206405 -1.246990
2.196282 4.637429 0.089566
2.182168 4.605096 -1.176494
2.189587 4.618213 0.267855
2.186090 4.608304 -0.991444
2.191334 4.616823 0.447109
2.195628 4.623332 -0.810643
2.190376 4.609742 0.626652
2.194766 4.616447 -0.627627
2.191790 4.607659 0.808140
2.199668 4.621685 -0.447806
3.065739 6.437845 1.386037
2.205297 4.628437 -0.268693
3.064242 6.427654 1.643942
2.204792 4.622314 -0.089391
2.949700 6.180618 1.835027
1.996201 4.180428 -1.241296
2.211190 4.628123 0.089531
2.199509 4.601158 -1.177394
2.208739 4.617941 0.268274
2.201761 4.600837 -0.991444
2.204452 4.603947 0.446586
2.212204 4.617614 -0.810956
2.214633 4.620161 0.629090
2.211324 4.610741 -0.627871
2.207459 4.600173 0.808140
2.213660 4.610580 -0.447458
3.093583 6.439761 1.388708
2.221036 4.620905 -0.268693
3.098769 6.443531 1.650691
2.223979 4.621991 -0.089531
2.964014 6.156619 1.830886
2.012094 4.177091 -1.242331
2.220008 4.606148 0.089252
2.216053 4.595377 -1.177844
2.226254 4.613958 0.268483
2.222628 4.603877 -0.993733
2.223700 4.603533 0.447283
2.219462 4.592200 -0.807828
2.222743 4.596428 0.626896
2.228933 4.606665 -0.628358
2.225910 4.597858 0.809079
2.229589 4.602898 -0.447458
3.115867 6.429008 1.388708
2.234438 4.607781 -0.268379
3.131345 6.453766 1.656090
2.240049 4.614224 -0.089531
2.989674 6.154939 1.833474
2.036796 4.190892 -1.248543
2.239571 4.605564 0.089391
2.226964 4.577100 -1.175144
2.239723 4.600772 0.268169
2.238685 4.596091 -0.993733
2.243248 4.602907 0.447981
2.235478 4.584425 -0.807828
2.231810 4.574369 0.624946
2.242387 4.593505 -0.627627
2.244547 4.595385 0.810018
2.246518 4.596877 -0.447632
3.149501 6.441021 1.393669
2.240853 4.580219 -0.267227
3.158994 6.453298 1.658789
2.256142 4.606377 -0.089531
3.019642 6.161813 1.838650
2.044609 4.169881 -1.244402
2.253847 4.594140 0.089321
2.244595 4.572821 -1.176044
2.251292 4.583999 0.267646
2.251151 4.581249 -0.992207
2.253022 4.582594 0.446760
2.253933 4.581985 -0.808766
2.251973 4.575542 0.626165
2.254700 4.578624 -0.626652
2.258603 4.584089 0.809392
2.264943 4.594492 -0.448155
3.182001 6.451306 1.398248
2.257412 4.574307 -0.267332
3.184495 6.449446 1.660589
2.269199 4.593268 -0.089426
3.044053 6.158412 1.840721
2.062214 4.169824 -1.246473
2.272130 4.591819 0.089426
2.257552 4.559916 -1.174694
2.268653 4.579890 0.267855
2.264114 4.568284 -0.991062
2.272146 4.582040 0.447458
2.269514 4.574287 -0.808766
2.271945 4.576741 0.627383
2.272036 4.574480 -0.627140
2.269796 4.567531 0.807828
2.278792 4.583189 -0.447806
3.213558 6.459775 1.402446
2.276527 4.573750 -0.267751
3.211639 6.449037 1.663288
2.280360 4.576570 -0.089252
3.058961 6.135913 1.837098
2.069495 4.148952 -1.242331
2.284223 4.576878 0.089287
2.274898 4.555644 -1.175594
2.284377 4.572067 0.267855
2.282482 4.565720 -0.992207
2.282629 4.563464 0.446412
2.281832 4.559321 -0.807515
2.288746 4.570583 0.627627
2.288879 4.568296 -0.627383
2.285775 4.559555 0.807828
2.289517 4.564471 -0.446760
3.240701 6.457186 1.404354
2.294470 4.569245 -0.267960
3.244981 6.458507 1.668687
2.299315 4.573791 -0.089356
3.077356 6.118060 1.835027
2.082590 4.138070 -1.241296
2.299685 4.566890 0.089252
2.289430 4.543995 -1.174694
2.301620 4.565648 0.267960
2.296150 4.552266 -0.991062
2.302533 4.562383 0.447109
2.295459 4.545838 -0.806576
2.297923 4.548190 0.625677
2.307000 4.563620 -0.627871
2.304749 4.556636 0.808766
2.307633 4.559805 -0.447109
3.267331 6.452555 1.405881
2.309901 4.559225 -0.267855
3.277760 6.465975 1.673636
2.315665 4.565535 -0.089356
3.096604 6.101842 1.833474
2.102630 4.140927 -1.244402
2.312337 4.551526 0.089112
2.302925 4.530613 -1.173345
2.312359 4.546778 0.267332
2.314896 4.549372 -0.992207
2.318594 4.554242 0.447109
2.312308 4.539507 -0.806889
2.314736 4.541885 0.625921
2.317506 4.544929 -0.626408
2.325080 4.557386 0.810331
2.324342 4.553548 -0.447283
3.300339 6.462200 1.410460
2.321968 4.544122 -0.267437
3.306168 6.466820 1.676785
2.332200 4.559357 -0.089391
3.126220 6.108431 1.838650
2.118472 4.137186 -1.245437
2.334197 4.556088 0.089356
2.318331 4.522749 -1.173345
2.326909 4.537105 0.267227
2.327677 4.536227 -0.991062
2.335900 4.549869 0.447458
2.329550 4.535125 -0.807515
2.332903 4.539277 0.626652
2.334776 4.540546 -0.626896
2.338769 4.545934 0.809705
2.344385 4.554468 -0.448155
3.331303 6.468384 1.414276
2.337420 4.536193 -0.267437
3.335302 6.469387 1.680384
2.344037 4.544285 -0.089252
3.146992 6.097756 1.838650
2.125449 4.116220 -1.241296
2.349739 4.548092 0.089356
2.336493 4.519975 -1.174694
2.342485 4.529083 0.267227
2.341495 4.524689 -0.990299
2.350703 4.539995 0.447283
2.345267 4.527017 -0.807515
2.351425 4.536419 0.627383
2.352439 4.535893 -0.627383
2.350124 4.528950 0.808140
2.355778 4.537364 -0.447283
3.367648 6.482739 1.420001
2.352516 4.526131 -0.267332
3.368107 6.476540 1.685333
2.357413 4.530599 -0.089147
3.168722 6.086492 1.838650
2.137486 4.103449 -1.239743
2.364148 4.536109 0.089287
2.353552 4.513314 -1.175144
2.360522 4.524214 0.267437
2.360395 4.521503 -0.991444
2.357708 4.513896 0.445540
2.363280 4.522099 -0.808140
2.369480 4.531495 0.627871
2.365892 4.522170 -0.626652
2.365397 4.518762 0.807828
2.368300 4.521846 -0.446586
3.394466 6.477604 1.421527
2.376115 4.531836 -0.268169
3.401216 6.483430 1.690282
2.374537 4.523905 -0.089182
3.190479 6.075115 1.838650
2.154850 4.100905 -1.241296
2.375686 4.518784 0.089112
2.362378 4.491093 -1.171545
2.384992 4.531685 0.268379
2.379203 4.518292 -0.992588
2.377435 4.512547 0.446237
2.375612 4.506702 -0.806889
2.383654 4.519567 0.627383
2.383713 4.517292 -0.627140
2.386861 4.520868 0.809705
2.386078 4.516997 -0.446935
3.421820 6.474302 1.423435
2.387350 4.514634 -0.267646
3.435780 6.493855 1.696131
2.392234 4.519098 -0.089252
3.208986 6.058802 1.837098
2.178197 4.110428 -1.246473
2.392381 4.512231 0.089147
2.377127 4.481098 -1.171095
2.397987 4.518040 0.268065
2.395881 4.511694 -0.992970
2.396911 4.511258 0.446935
2.389474 4.494894 -0.806263
2.394755 4.502456 0.626165
2.400400 4.510696 -0.627383
2.403556 4.514252 0.810018
2.404641 4.513916 -0.447458
3.455480 6.483108 1.428015
2.399335 4.499224 -0.267227
3.462096 6.488700 1.697931
2.411761 4.517776 -0.089391
3.237397 6.061196 1.841239
2.188890 4.095985 -1.244402
2.412832 4.512670 0.089321
2.392755 4.472773 -1.171095
2.408089 4.499076 0.267437
2.406981 4.494650 -0.991062
2.413585 4.504620 0.447109
2.411683 4.498712 -0.808453
2.412333 4.497568 0.626652
2.410498 4.491794 -0.625921
2.418365 4.504094 0.809705
2.421326 4.507250 -0.447632
3.488313 6.490029 1.432212
2.416918 4.494339 -0.267437
3.493035 6.492020 1.701980
2.423725 4.502287 -0.089252
3.260367 6.053260 1.842274
2.195842 4.074714 -1.240261
2.433314 4.513021 0.089496
2.414830 4.476399 -1.174245
2.424727 4.492401 0.267541
2.419857 4.481038 -0.989917
2.426453 4.490909 0.446586
2.430190 4.495480 -0.809392
2.431795 4.496105 0.627627
2.428997 4.488590 -0.626652
2.430310 4.488677 0.808453
2.432299 4.490011 -0.446760
3.524979 6.503703 1.437937
2.435447 4.491143 -0.267751
3.523110 6.493491 1.705579
2.437518 4.490284 -0.089182
3.279633 6.038447 1.841239
2.201751 4.051747 -1.235602
2.442367 4.492202 0.089252
2.431372 4.469654 -1.174694
2.442303 4.487418 0.267751
2.436423 4.474288 -0.990299
2.436395 4.471914 0.445540
2.441140 4.478297 -0.807828
2.446524 4.485846 0.627383
2.447503 4.485312 -0.627383
2.445964 4.480166 0.808453
2.447958 4.481494 -0.446760
3.555192 6.505141 1.440990
2.454943 4.489623 -0.268169
3.559785 6.506797 1.712327
2.455098 4.485257 -0.089252
3.297907 6.021879 1.839686
2.224236 4.059285 -1.240261
2.454187 4.476635 0.089112
2.446959 4.461140 -1.174694
2.459874 4.482367 0.267960
2.455806 4.472640 -0.991825
2.451990 4.463382 0.445540
2.453903 4.464555 -0.806889
2.464081 4.480757 0.627871
2.465059 4.480220 -0.627871
2.465398 4.478523 0.809705
2.465508 4.476412 -0.447109
3.580720 6.497850 1.442134
2.465778 4.472282 -0.267646
3.593771 6.514808 1.717726
2.472672 4.480161 -0.089321
3.323577 6.018786 1.842274
2.237457 4.049805 -1.239743
2.469774 4.468054 0.089112
2.451150 4.432134 -1.169296
2.475432 4.473794 0.267960
2.477011 4.474400 -0.994115
2.474191 4.467064 0.446760
2.471241 4.459499 -0.807515
2.471836 4.458335 0.625921
2.476636 4.464752 -0.626896
2.482714 4.473466 0.810331
2.484744 4.474881 -0.447806
3.616339 6.509555 1.447477
2.477200 4.456827 -0.267227
3.623606 6.516105 1.721325
2.491843 4.478682 -0.089461
3.348772 6.015862 1.844862
2.252167 4.043854 -1.240261
2.490807 4.470104 0.089321
2.472863 4.435681 -1.172445
2.480915 4.447900 0.266913
2.487441 4.457372 -0.992207
2.487438 4.455138 0.446412
2.489294 4.456236 -0.808453
2.490869 4.456827 0.626896
2.488910 4.451100 -0.626165
2.497924 4.464990 0.810331
2.502879 4.471614 -0.448329
3.648065 6.514339 1.451293
2.494307 4.451855 -0.267437
3.651479 6.513934 1.724025
2.503158 4.463199 -0.089321
3.374899 6.014538 1.847968
2.264026 4.032797 -1.239226
2.508944 4.466831 0.089426
2.492718 4.435734 -1.174694
2.499954 4.446395 0.267332
2.496822 4.438613 -0.989917
2.504540 4.450119 0.446760
2.504446 4.447738 -0.808453
2.507971 4.451783 0.627383
2.506969 4.447791 -0.626896
2.507284 4.446139 0.808453
2.509272 4.447453 -0.446760
3.684691 6.527530 1.457017
2.513372 4.450296 -0.267855
3.683214 6.518435 1.728524
2.514397 4.447691 -0.089182
3.393448 5.999654 1.846933
2.272029 4.014980 -1.236120
2.518220 4.447825 0.089217
2.509721 4.430616 -1.175594
2.518027 4.443074 0.267646
2.511914 4.430090 -0.989917
2.511806 4.427706 0.445366
2.518594 4.437471 -0.808140
2.523108 4.443222 0.627383
2.525033 4.444411 -0.627627
2.523377 4.439298 0.808766
2.524394 4.438887 -0.446760
3.715623 6.530309 1.460452
2.527516 4.439981 -0.267751
3.722738 6.536342 1.736622
2.531500 4.442582 -0.089252
3.411933 5.984714 1.845897
2.284465 4.003470 -1.235084
2.534166 4.438759 0.089217
2.522754 4.416476 -1.174245
2.539008 4.442623 0.268169
2.528915 4.422668 -0.990299
2.534799 4.430658 0.446586
2.526894 4.414550 -0.805637
2.541301 4.437417 0.627871
2.543280 4.438571 -0.628115
2.544592 4.438560 0.810331
2.539751 4.427821 -0.446586
3.746587 6.528444 1.463123
2.543966 4.430576 -0.267751
3.760615 6.546106 1.742921
2.550049 4.436575 -0.089321
3.430449 5.965207 1.843827
2.300701 3.998619 -1.236120
2.551029 4.431397 0.089252
2.534649 4.400667 -1.172445
2.550898 4.426588 0.267751
2.548646 4.420395 -0.991825
2.551631 4.423286 0.446760
2.547610 4.414035 -0.807202
2.552198 4.419701 0.626652
2.555172 4.422568 -0.627140
2.564411 4.436268 0.811582
2.558570 4.423880 -0.447109
3.775821 6.525193 1.465413
2.552797 4.409346 -0.267018
3.788897 6.541040 1.745170
2.567912 4.430883 -0.089391
3.459523 5.966265 1.847968
2.321779 4.002059 -1.239743
2.567824 4.423999 0.089287
2.551261 4.393311 -1.172895
2.566575 4.417517 0.267751
2.562279 4.407965 -0.991062
2.575213 4.428047 0.448155
2.568066 4.413597 -0.808766
2.569655 4.414168 0.627140
2.567597 4.408476 -0.626408
2.579832 4.427318 0.811582
2.577914 4.421863 -0.447806
3.818145 6.546015 1.473045
2.572007 4.407421 -0.267437
3.820193 6.543129 1.749219
2.581056 4.418608 -0.089321
3.479873 5.954418 1.847968
2.330511 3.985796 -1.237155
2.582866 4.415234 0.089287
2.562261 4.377875 -1.171095
2.582604 4.410480 0.267855
2.574289 4.394137 -0.989917
2.590268 4.419257 0.448155
2.579075 4.398015 -0.807515
2.587677 4.410534 0.627871
2.582586 4.399712 -0.626408
2.587883 4.406588 0.809392
2.590930 4.409628 -0.447458
3.851346 6.551599 1.477243
2.589017 4.402085 -0.267646
3.853311 6.548564 1.754168
2.594050 4.406351 -0.089252
3.500118 5.942540 1.847968
2.329351 3.952875 -1.229390
2.593839 4.399513 0.089147
2.583134 4.379172 -1.173795
2.600717 4.406783 0.268169
2.597311 4.398818 -0.992970
2.597307 4.396621 0.446760
2.596182 4.392528 -0.808140
2.602841 4.401602 0.627871
2.598747 4.392492 -0.626652
2.601069 4.394228 0.808766
2.601086 4.392071 -0.446586
3.884021 6.555112 1.481059
2.608346 4.399950 -0.268065
3.886974 6.553574 1.759117
2.607327 4.393859 -0.089182
3.517849 5.925322 1.846415
2.346095 3.949703 -1.230943
2.612245 4.395589 0.089252
2.596413 4.366779 -1.172895
2.615062 4.395961 0.268065
2.612650 4.389725 -0.992970
2.616716 4.394376 0.447458
2.609477 4.380045 -0.807515
2.621239 4.397605 0.628602
2.618131 4.390213 -0.627627
2.620440 4.391907 0.810018
2.619465 4.388097 -0.447109
3.916946 6.558369 1.484876
2.621640 4.387389 -0.267855
3.925826 6.566728 1.766316
2.630860 4.398460 -0.089461
3.540495 5.916322 1.847450
2.359867 3.941490 -1.230943
2.629628 4.389875 0.089321
2.604627 4.345988 -1.169745
2.630391 4.386806 0.268065
2.629977 4.383946 -0.993733
2.629988 4.381798 0.447109
2.623733 4.369216 -0.807202
2.630439 4.378219 0.627140
2.631394 4.377645 -0.627140
2.641863 4.392890 0.811895
2.634767 4.378927 -0.447109
3.943865 6.551385 1.486402
2.632817 4.371367 -0.267437
3.953753 6.561330 1.768565
2.648262 4.392675 -0.089531
3.565116 5.910544 1.849521
2.387585 3.956384 -1.238190
2.640801 4.373822 0.089182
2.625827 4.346878 -1.172445
2.643622 4.374179 0.267855
2.642216 4.369699 -0.992588
2.655581 4.389638 0.448852
2.642037 4.365101 -0.808140
2.647763 4.372406 0.627627
2.642545 4.361642 -0.626165
2.657181 4.383642 0.811895
2.652102 4.373110 -0.447458
3.979949 6.559398 1.491363
2.650133 4.365565 -0.267646
3.986749 6.564145 1.773064
2.665657 4.386822 -0.089601
3.587734 5.901365 1.850556
2.395358 3.938123 -1.235084
2.667488 4.383368 0.089566
2.641998 4.339350 -1.172895
2.663031 4.371747 0.268274
2.650301 4.348714 -0.989917
2.665701 4.371836 0.447981
2.659316 4.359224 -0.808766
2.669214 4.373304 0.629090
2.657754 4.352391 -0.626165
2.668347 4.367597 0.810643
2.669429 4.367226 -0.447806
4.023306 6.578963 1.498995
2.671609 4.366510 -0.268274
4.021847 6.570134 1.778463
2.674687 4.367258 -0.089391
3.609321 5.890453 1.851074
2.401012 3.916562 -1.230943
2.676499 4.363802 0.089356
2.660187 4.335084 -1.174245
2.683499 4.370935 0.268797
2.668547 4.344455 -0.991062
2.678859 4.359110 0.447632
2.675551 4.351598 -0.809079
2.692784 4.377486 0.631039
2.676051 4.348159 -0.626896
4.034169 6.551682 1.218624
2.683612 4.356185 -0.447632
4.054488 6.578249 1.502048
2.687883 4.358858 -0.268379
4.061128 6.582591 1.785661
2.695167 4.366403 -0.089566
3.622755 5.866312 1.847450
2.417715 3.913087 -1.232496
2.693794 4.357849 0.089426
2.676281 4.327459 -1.174694
4.063767 6.567855 0.404766
2.684635 4.336841 -0.991444
4.054548 6.546728 0.673714
2.683299 4.330566 -0.806889
4.051886 6.536217 0.944244
2.698348 4.350718 -0.628602
4.065025 6.551187 1.221127
2.695412 4.341860 -0.447109
4.083246 6.574308 1.504338
2.705960 4.354715 -0.268693
4.095961 6.588524 1.791060
2.716396 4.367364 -0.089775
3.649876 5.865410 1.851074
2.429998 3.903196 -1.231979
4.077717 6.546747 0.134628
2.686871 4.311710 -1.172895
4.087153 6.555681 0.404871
2.703535 4.334342 -0.992970
4.092627 6.558245 0.676329
2.700114 4.324760 -0.807515
4.084624 6.539225 0.946681
2.703671 4.326358 -0.626408
4.105101 6.565788 1.226446
4.093260 6.543754 -0.675283
4.118096 6.580343 1.508918
4.088037 6.529224 -0.403720
4.129740 6.592712 1.796009
4.098990 6.540530 -0.134733
3.672895 5.857865 1.852627
2.443268 3.894903 -1.231979
4.112801 6.553112 0.135047
2.699551 4.299180 -1.171995
4.113905 6.548363 0.405290
2.716370 4.321673 -0.992207
4.124826 6.559234 0.677897
2.721412 4.325399 -0.809392
4.123217 6.550171 0.950337
4.110929 6.527413 -0.947169
4.136491 6.564744 1.228949
4.124720 6.542820 -0.676677
4.154871 6.587380 1.513879
4.122812 6.533314 -0.404871
4.161410 6.591212 1.799608
4.135038 6.546200 -0.135151
3.695831 5.847992 1.853662
2.454091 3.881238 -1.230426
4.151189 6.562013 0.135535
2.717000 4.292787 -1.172895
4.150130 6.553851 0.406546
2.760184 4.356704 -1.002510
4.161068 6.564627 0.679989
4.131225 6.514323 -1.221753
4.159389 6.555491 0.953262
4.143832 6.527746 -0.949362
4.166307 6.559907 1.230826
4.157720 6.543154 -0.678246
4.197373 6.602294 1.520748
4.160096 6.540430 -0.406232
4.195428 6.592722 1.804107
4.164877 6.541484 -0.135361
3.715693 5.833102 1.853144
2.464847 3.867545 -1.228873
4.185320 6.564025 0.135884
0.000000 0.000000 -0.000000
4.189456 6.564351 0.408116
3.461268 5.420828 -1.250181
4.188463 6.556641 0.680686
4.166846 6.519745 -1.225508
4.202636 6.572663 0.957893
4.180500 6.534980 -0.952531
4.201886 6.565335 1.234581
4.188987 6.542116 -0.679640
4.226532 6.597659 1.523037
4.192316 6.541185 -0.407174
4.231731 6.599593 1.809956
4.202375 6.550744 -0.135850
3.731414 5.813878 1.851074
2.471733 3.849380 -1.225767
4.216282 6.563203 0.136164
2.883781 4.486890 -1.231382
4.227976 6.575253 0.409686
3.479697 5.409017 -1.250181
4.222614 6.560778 0.682604
4.196497 6.517152 -1.227698
4.231431 6.568334 0.959355
4.217772 6.544074 -0.955943
4.243475 6.580879 1.240212
4.227430 6.552934 -0.682255
4.255349 6.593134 1.525327
4.226472 6.545335 -0.408325
4.273202 6.614616 1.818054
4.242013 6.563275 -0.136408
3.758522 5.812501 1.854697
2.487967 3.845812 -1.227320
4.251633 6.568960 0.136583
2.907509 4.490135 -1.234981
4.254674 6.567531 0.410105
3.497018 5.395495 -1.249799
4.260095 6.569772 0.685044
4.230479 6.521061 -1.231139
4.263488 6.568881 0.961549
4.244344 6.536341 -0.956918
4.279838 6.587934 1.244280
4.262737 6.558555 -0.684347
4.294888 6.604947 1.531433
4.258526 6.545980 -0.409267
4.308446 6.619634 1.823453
4.277420 6.568908 -0.136827
3.778282 5.799676 1.854697
2.502096 3.838941 -1.227838
4.288165 6.576228 0.137036
2.920644 4.476949 -1.234081
4.290100 6.573083 0.411361
3.511067 5.376987 -1.248272
4.298775 6.580255 0.687659
4.268859 6.531428 -1.235832
4.302115 6.579254 0.965205
4.277433 6.538470 -0.959355
4.313052 6.589858 1.247408
4.300314 6.567345 -0.686787
4.332404 6.613283 1.536776
4.299392 6.559847 -0.411047
4.334156 6.609821 1.824803
4.310721 6.571033 -0.137176
3.805419 5.798089 1.858321
2.523630 3.843321 -1.231979
4.322670 6.579933 0.137420
2.945595 4.481576 -1.238131
4.325829 6.578328 0.412617
3.526344 5.359932 -1.247128
4.336839 6.588650 0.690099
4.306700 6.539678 -1.240212
4.335905 6.580820 0.967643
4.316618 6.548360 -0.963012
4.344801 6.587907 1.249911
4.332133 6.565504 -0.688182
4.372984 6.624192 1.542882
4.336859 6.566276 -0.412407
4.372602 6.617176 1.831102
4.340677 6.565670 -0.137385
3.822879 5.779644 1.856768
2.528836 3.821379 -1.227838
4.356120 6.579431 0.137734
2.961611 4.471008 -1.238131
4.362578 6.582787 0.413873
3.540074 5.339099 -1.245220
4.368095 6.584713 0.691319
4.334441 6.530811 -1.241464
4.374796 6.588417 0.971055
4.355398 6.556022 -0.966424
4.385840 6.598642 1.254917
4.362216 6.559917 -0.689228
4.407531 6.624849 1.546698
4.374711 6.572331 -0.413768
4.405971 6.616087 1.835151
4.384099 6.580053 -0.138014
3.839248 5.759499 1.854697
2.540349 3.809092 -1.226802
4.390696 6.580461 0.138083
2.972130 4.452311 -1.235881
4.404853 6.595443 0.415652
3.564492 5.334639 -1.247128
4.402520 6.585726 0.693062
4.363057 6.523613 -1.243028
4.410233 6.591038 0.973736
4.398420 6.570281 -0.970811
4.420090 6.599537 1.258046
4.404156 6.572644 -0.692191
4.439556 6.622349 1.549751
4.408895 6.573512 -0.414815
4.419375 6.586030 1.831102
4.422717 6.587905 -0.138502
3.864746 5.754060 1.857285
2.555784 3.803409 -1.227838
4.432606 6.593306 0.138677
2.983303 4.435442 -1.234081
4.437884 6.594940 0.416594
3.585284 5.325421 -1.247891
4.441064 6.593453 0.695503
4.401257 6.531277 -1.247408
4.440981 6.587125 0.975442
4.431318 6.569699 -0.973005
4.458570 6.606992 1.262426
4.446024 6.585302 -0.695154
4.476931 6.627961 1.554712
4.441878 6.572975 -0.415757
4.350653 6.434955 1.793310
4.461371 6.595615 -0.138991
3.883725 5.738934 1.856768
2.572294 3.799263 -1.229390
4.469052 6.597661 0.139096
2.998767 4.425001 -1.234081
4.469844 6.592634 0.417432
3.597239 5.303125 -1.245601
4.483072 6.605937 0.698466
4.437344 6.535486 -1.251163
4.479564 6.594572 0.978855
4.463150 6.567325 -0.974955
4.498265 6.615891 1.267119
4.483552 6.591158 -0.697420
4.515503 6.635016 1.560054
4.477160 6.575590 -0.416908
4.348952 6.384297 1.783412
4.493377 6.593222 -0.139270
3.915705 5.742900 1.862462
2.579009 3.780686 -1.226285
4.511218 6.610100 0.139689
3.013096 4.412897 -1.233632
4.511982 6.605027 0.419211
3.615728 5.290536 -1.245601
4.513976 6.601761 0.699686
4.474629 6.541152 -1.255230
4.518252 6.601829 0.982267
4.501748 6.574637 -0.978367
4.528030 6.609927 1.268996
4.516669 6.590259 -0.698989
4.556400 6.645120 1.566160
4.518163 6.586273 -0.418583
4.378930 6.380324 1.786561
4.525419 6.590685 -0.139549
3.933540 5.726012 1.861427
2.590438 3.770520 -1.225767
4.544476 6.611558 0.140038
3.025553 4.399636 -1.232732
4.548685 6.611345 0.420572
3.625575 5.267117 -1.242930
4.545064 6.599759 0.701081
4.484181 6.508237 -1.251789
4.566284 6.624228 0.987873
4.538463 6.580719 -0.981536
4.565954 6.617415 1.273377
4.545649 6.584835 -0.700035
4.594428 6.652316 1.571503
4.558575 6.597248 -0.420258
4.409380 6.378280 1.790160
4.568227 6.604898 -0.140178
3.951875 5.711025 1.860909
2.603912 3.761228 -1.225767
4.577211 6.608407 0.140317
3.045715 4.395190 -1.234531
4.591656 6.622931 0.422351
3.647754 5.258951 -1.244075
4.584551 6.606371 0.703521
4.507438 6.492151 -1.251789
4.601280 6.624151 0.990310
4.578972 6.588890 -0.985192
4.603133 6.620498 1.277131
4.589659 6.597970 -0.703173
4.626051 6.647114 1.574174
4.588998 6.590730 -0.420886
4.447767 6.384849 1.796459
4.603263 6.604917 -0.140527
3.963444 5.684171 1.856768
2.623984 3.761394 -1.228873
4.616777 6.614996 0.140806
3.059094 4.381136 -1.233632
4.623113 6.618073 0.423084
3.674191 5.257291 -1.246746
4.626066 6.616302 0.706310
4.526817 6.471423 -1.250850
4.629000 6.614505 0.991285
4.615606 6.592380 -0.988117
4.651076 6.640035 1.284014
4.625096 6.599957 -0.705090
4.661406 6.648761 1.578372
4.627746 6.597764 -0.422351
4.475277 6.377504 1.798709
4.651137 6.625117 -0.141295
3.997262 5.691157 1.863497
2.633439 3.747699 -1.227320
4.657664 6.625419 0.141364
3.071745 4.367511 -1.232732
4.652506 6.612101 0.423712
3.684151 5.233518 -1.244075
4.672648 6.634728 0.709971
4.559056 6.470512 -1.253666
4.670928 6.626295 0.995429
4.644880 6.586367 -0.989579
4.680480 6.633852 1.285891
4.668213 6.613477 -0.708228
4.706657 6.664932 1.586004
4.666308 6.604813 -0.423817
4.509329 6.379741 1.803658
4.682895 6.622311 -0.141574
4.024419 5.688560 1.867121
2.641714 3.732408 -1.225249
4.695209 6.630745 0.141818
3.094477 4.368163 -1.235881
4.699235 6.630448 0.425910
3.695128 5.211340 -1.241785
4.709035 6.638287 0.712062
4.576478 6.448515 -1.252414
4.707243 6.629782 0.998354
4.689111 6.601269 -0.994210
4.716762 6.637206 1.289646
4.704548 6.617037 -0.710319
4.742968 6.668072 1.590584
4.703814 6.610048 -0.425177
4.549099 6.389757 1.810856
4.710046 6.612850 -0.141714
4.041513 5.671684 1.866085
2.651037 3.718676 -1.223696
4.731683 6.634263 0.142237
3.093479 4.335397 -1.229582
4.734538 6.632297 0.427061
3.711702 5.197136 -1.241403
4.739708 6.633570 0.713283
4.596101 6.429688 -1.251789
4.747101 6.637944 1.002010
4.728876 6.609488 -0.997866
4.755421 6.643603 1.294026
4.734001 6.610706 -0.711365
4.780499 6.672639 1.595545
4.746063 6.621598 -0.426957
4.584447 6.393242 1.816255
4.761666 6.637402 -0.142586
4.052908 5.646910 1.862462
2.667058 3.714340 -1.225249
4.767176 6.635908 0.142621
3.118594 4.338984 -1.233632
4.773732 6.638613 0.428527
3.737733 5.195385 -1.244075
4.777930 6.638032 0.715549
4.597808 6.384701 -1.246157
4.783187 6.638919 1.004691
4.773100 6.621720 -1.002253
4.798623 6.653913 1.299345
4.776204 6.619630 -0.714154
4.817019 6.672976 1.599743
4.783901 6.623900 -0.428213
4.633786 6.412952 1.826603
4.799804 6.639508 -0.143005
4.075750 5.635214 1.863497
2.680654 3.704540 -1.225249
4.806711 6.639448 0.143075
3.128760 4.319633 -1.231382
4.819128 6.650183 0.430411
3.747531 5.168935 -1.241022
4.819775 6.644668 0.718163
4.644383 6.399782 -1.252414
4.819151 6.637407 1.007128
4.807838 6.618636 -1.004447
4.843882 6.665044 1.304976
4.820353 6.629474 -0.717117
4.855303 6.674327 1.604322
4.812848 6.612781 -0.428631
4.681349 6.429007 1.836051
4.842946 6.647732 -0.143563
4.103204 5.629605 1.866603
2.696490 3.697811 -1.226285
4.848619 6.646071 0.143598
3.135287 4.295613 -1.227783
4.851497 6.643925 0.431144
3.772017 5.163256 -1.242930
4.862546 6.652959 0.720952
4.668556 6.384616 -1.252727
4.868726 6.655316 1.012491
4.838523 6.611003 -1.005910
4.878129 6.662067 1.307792
4.866268 6.642829 -0.720429
4.903306 6.690326 1.612336
4.862171 6.631165 -0.430934
4.716651 6.429758 1.840999
4.876914 6.645189 -0.143878
4.121748 5.613646 1.866085
2.709382 3.688376 -1.226285
4.891920 6.656498 0.144192
3.159497 4.297203 -1.231382
4.897145 6.657518 0.433132
3.778381 5.134245 -1.239114
4.901096 6.656802 0.723218
4.689642 6.366691 -1.252414
4.906059 6.657457 1.015415
4.882774 6.622833 -1.010297
4.914252 6.662486 1.311234
4.905989 6.648246 -0.722870
4.947619 6.701600 1.619205
4.904274 6.639857 -0.432609
4.744857 6.421091 1.843249
4.916723 6.650637 -0.144366
4.139020 5.596118 1.865050
2.716495 3.671132 -1.223696
4.929331 6.658722 0.144611
3.167425 4.276821 -1.228683
4.937972 6.664616 0.434702
3.798394 5.124345 -1.239877
4.935808 6.655926 0.724961
4.694945 6.328380 -1.248034
4.951240 6.670954 1.020046
4.926587 6.634865 -1.014684
4.958029 6.674319 1.316865
4.939138 6.646010 -0.724439
4.981894 6.700640 1.623021
4.946819 6.650586 -0.434388
4.770987 6.411418 1.845049
4.959195 6.661457 -0.144960
4.155308 5.579218 1.864015
2.730962 3.665202 -1.224732
4.963336 6.658372 0.144960
3.186250 4.272543 -1.230482
4.976766 6.670616 0.436168
3.818889 5.116441 -1.241022
4.976926 6.665064 0.727750
4.706447 6.300116 -1.245531
4.989972 6.676760 1.023459
4.967581 6.643929 -1.018584
4.995517 6.678404 1.320933
4.976668 6.650332 -0.726705
5.018205 6.702942 1.627601
4.984411 6.654926 -0.435749
4.794559 6.398681 1.845948
5.005247 6.676976 -0.145658
4.177264 5.570044 1.865568
2.746579 3.660761 -1.226285
5.009543 6.673753 0.145658
3.185374 4.241556 -1.224634
5.014891 6.674506 0.437529
3.833921 5.100275 -1.240258
5.022480 6.678233 0.731062
4.732886 6.290169 -1.246783
5.025041 6.675270 1.025896
5.005074 6.645576 -1.021509
5.045096 6.695525 1.327816
5.016932 6.654975 -0.729145
5.062107 6.711700 1.634088
5.021423 6.654587 -0.436901
4.817561 6.381380 1.845948
5.040242 6.673166 -0.145972
4.199859 5.557870 1.866603
2.761143 3.652211 -1.226802
5.053271 6.680865 0.146216
3.209130 4.240731 -1.227783
5.056199 6.678374 0.438994
3.847847 5.079929 -1.238732
5.066177 6.685186 0.733851
4.763069 6.282224 -1.248660
5.063870 6.675786 1.028821
5.042598 6.644581 -1.024190
5.083937 6.695868 1.331570
5.064189 6.666687 -0.732457
5.108055 6.721237 1.640957
5.065121 6.661576 -0.438575
4.836198 6.357476 1.844149
5.082833 6.678517 -0.146495
4.229564 5.554736 1.870744
2.763975 3.628235 -1.222144
5.098258 6.689392 0.146810
3.226923 4.232110 -1.228683
5.097384 6.682195 0.440459
3.855499 5.051915 -1.235297
5.102372 6.682686 0.735594
4.785653 6.265038 -1.248660
5.111902 6.689115 1.033696
5.086836 6.653305 -1.028334
5.124591 6.699657 1.335950
5.102394 6.667623 -0.734549
5.148560 6.724910 1.646300
5.112923 6.675345 -0.440669
4.860939 6.343491 1.845049
5.115993 6.673318 -0.146775
4.244286 5.533760 1.868674
2.775447 3.617033 -1.221626
5.137407 6.692175 0.147263
3.244050 4.223911 -1.229582
5.142582 6.692869 0.442344
3.881486 5.049321 -1.237969
5.140244 6.683787 0.737686
4.784606 6.218548 -1.242715
5.158227 6.701118 1.038327
5.128197 6.659100 -1.031990
5.166030 6.705200 1.340643
5.142666 6.671864 -0.736989
5.192384 6.733327 1.652788
5.158153 6.685921 -0.442553
4.887815 6.332655 1.846848
5.161255 6.683909 -0.147403
4.257671 5.511267 1.866085
2.792781 3.613437 -1.223696
5.170448 6.686914 0.147543
3.258682 4.212632 -1.229582
5.184030 6.698739 0.443914
3.906079 5.045226 -1.240258
5.182700 6.691288 0.740475
4.805877 6.202124 -1.242715
5.195671 6.702293 1.041252
5.171512 6.668275 -1.036133
5.206911 6.711047 1.345336
5.185966 6.681192 -0.739952
5.223479 6.726641 1.655459
5.187939 6.678016 -0.443181
4.916170 6.325483 1.849548
5.205631 6.695059 -0.148031
4.277170 5.498596 1.866603
2.798816 3.596533 -1.221108
5.214706 6.698133 0.148171
3.258265 4.183354 -1.224184
5.220946 6.700416 0.445170
3.916753 5.024503 -1.238350
5.224465 6.699202 0.743264
4.826418 6.186153 -1.242715
5.232525 6.703805 1.044177
5.210701 6.672993 -1.039545
5.246162 6.715536 1.349717
5.225270 6.685935 -0.742393
5.267523 6.737122 1.662328
5.221130 6.674934 -0.444123
4.933516 6.304541 1.848198
5.248759 6.704528 -0.148625
4.303718 5.495028 1.870226
2.817876 3.596356 -1.224214
5.251839 6.699575 0.148590
3.281922 4.184650 -1.227783
5.260835 6.704721 0.446635
3.916859 4.989524 -1.233008
5.276915 6.718874 0.747448
4.847713 6.169479 -1.242715
5.271696 6.705902 1.047345
5.246234 6.670367 -1.041983
5.297813 6.732773 1.356913
5.274748 6.700301 -0.746053
5.315743 6.749194 1.669960
5.265994 6.682880 -0.445902
4.951353 6.280620 1.846398
5.290343 6.707457 -0.149113
4.332087 5.489928 1.873850
2.820265 3.572357 -1.219555
5.312304 6.725789 0.149602
3.289988 4.163420 -1.225083
5.302715 6.707329 0.448100
3.943646 4.985913 -1.235679
5.315106 6.716674 0.749365
4.869067 6.150121 -1.242403
5.320890 6.717657 1.052220
5.292839 6.679099 -1.046370
5.332272 6.725694 1.359416
5.311652 6.696533 -0.747796
5.367293 6.763498 1.678356
5.312806 6.691690 -0.447786
4.982823 6.273112 1.849548
5.331065 6.708374 -0.149567
4.349775 5.470989 1.872815
2.833340 3.561996 -1.219555
5.348053 6.720414 0.149916
3.312418 4.160553 -1.227783
5.353175 6.720830 0.450299
3.954336 4.962386 -1.233389
5.349258 6.709903 0.750760
4.893637 6.135643 -1.243028
5.370965 6.731103 1.057338
5.340233 6.689595 -1.051001
5.378418 6.734414 1.365047
5.346625 6.691611 -0.749365
5.405947 6.762830 1.682935
5.360124 6.702507 -0.449775
5.007330 6.258560 1.850447
5.370840 6.709902 -0.150021
4.358038 5.442153 1.868156
2.846964 3.553592 -1.220073
5.382734 6.715748 0.150230
3.324483 4.145924 -1.226883
5.395350 6.725472 0.451869
3.974091 4.951615 -1.234153
5.393854 6.717600 0.753723
4.903891 6.104663 -1.240212
5.414325 6.737071 1.061238
5.383454 6.695666 -1.054901
5.419227 6.737148 1.369427
5.401178 6.711712 -0.753723
5.446757 6.765328 1.688278
5.406039 6.711754 -0.451659
5.038928 6.253182 1.854047
5.414310 6.716022 -0.150579
4.379433 5.429915 1.869191
2.856925 3.540625 -1.219038
5.427497 6.723369 0.150824
3.331588 4.125198 -1.224184
5.437622 6.729901 0.453439
3.987649 4.933132 -1.233008
5.442327 6.729715 0.757209
4.918958 6.079830 -1.238648
5.447800 6.730474 1.063188
5.421784 6.695346 -1.057826
5.468824 6.750423 1.375998
5.449664 6.723774 -0.757209
5.485178 6.764573 1.692857
5.444534 6.711455 -0.452915
5.060725 6.235555 1.854047
5.462930 6.728130 -0.151277
4.412977 5.432588 1.875403
2.880232 3.544124 -1.223696
5.469855 6.727656 0.151347
3.345967 4.113544 -1.224184
5.476208 6.729468 0.454695
3.998647 4.911570 -1.231100
5.492207 6.743118 0.760870
4.938903 6.061091 -1.238335
5.492583 6.737573 1.067332
5.466451 6.702531 -1.061969
5.511086 6.754250 1.380691
5.492000 6.727862 -0.759824
5.537319 6.780359 1.701635
5.485619 6.714063 -0.454381
5.071360 6.204272 1.849997
5.501573 6.727596 -0.151696
4.434360 5.420141 1.876438
2.886467 3.526574 -1.221108
5.524942 6.747231 0.152220
3.365201 4.107905 -1.225983
5.521077 6.736663 0.456474
4.013171 4.894634 -1.230336
5.533219 6.745622 0.763310
4.968604 6.054665 -1.240525
5.535966 6.743118 1.071232
5.510941 6.709727 -1.066113
5.548094 6.752032 1.384132
5.530268 6.727420 -0.761916
5.585488 6.791649 1.709267
5.530157 6.721454 -0.456160
5.095025 6.189902 1.850897
5.549934 6.739646 -0.152394
4.447897 5.399030 1.874368
2.891081 3.507785 -1.218002
5.565684 6.749989 0.152709
3.386603 4.105448 -1.228683
5.568127 6.747101 0.458463
4.032306 4.883975 -1.231100
5.571370 6.745185 0.765402
4.974082 6.019447 -1.236771
5.586709 6.757898 1.076594
5.556518 6.718467 -1.070500
5.594968 6.762028 1.390077
5.565837 6.723908 -0.763659
5.628606 6.796793 1.715373
5.579759 6.734891 -0.458358
5.118549 6.175527 1.851797
5.597092 6.749966 -0.153058
4.463779 5.380887 1.873332
2.910405 3.506845 -1.221108
5.600121 6.744854 0.153023
3.391839 4.083405 -1.225533
5.617864 6.760370 0.460661
4.042629 4.862675 -1.229192
5.618501 6.755289 0.768714
4.990749 5.997928 -1.235832
5.629997 6.763256 1.080494
5.602217 6.726974 -1.074888
5.643238 6.773300 1.396334
5.616753 6.738596 -0.767493
5.665536 6.794183 1.719571
5.621839 6.738867 -0.459928
5.154521 6.176024 1.857196
5.635412 6.749297 -0.153476
4.482067 5.365664 1.873332
2.913652 3.486543 -1.217485
5.652544 6.761041 0.153826
3.394465 4.058385 -1.221484
5.660065 6.764187 0.462231
4.065456 4.856415 -1.231100
5.664486 6.763622 0.771851
5.020014 5.991507 -1.238022
5.668285 6.762311 1.083418
5.640386 6.726121 -1.077812
5.687841 6.779781 1.401653
5.667834 6.753015 -0.771328
5.715138 6.806436 1.727585
5.657588 6.734988 -0.460975
5.175511 6.158445 1.857196
5.690521 6.768344 -0.154349
4.511494 5.363684 1.877991
2.937939 3.491388 -1.222661
5.697452 6.767740 0.154419
3.413323 4.052733 -1.223284
5.698607 6.763120 0.463487
4.089659 4.851468 -1.233389
5.715915 6.777657 0.775686
5.027833 5.959125 -1.234894
5.717133 6.773102 1.088293
5.685310 6.732422 -1.081956
5.734161 6.787265 1.407284
5.716874 6.763809 -0.774815
5.758959 6.810587 1.733691
5.710586 6.750393 -0.463383
5.194358 6.137452 1.856296
5.732130 6.769867 -0.154838
4.533906 5.352350 1.879544
2.936370 3.464899 -1.216967
5.744318 6.775265 0.155047
3.432491 4.046738 -1.225083
5.744149 6.769075 0.465267
4.091321 4.819203 -1.228810
5.758885 6.780442 0.778301
5.056279 5.950570 -1.236771
5.763883 6.780328 1.092681
5.730639 6.738242 -1.086100
5.771899 6.783757 1.410726
5.757238 6.763536 -0.777081
5.811974 6.824822 1.742468
5.756133 6.756263 -0.465162
5.222070 6.126698 1.858546
5.768701 6.765033 -0.155187
4.547546 5.330613 1.877473
2.950955 3.457567 -1.218002
5.790008 6.781026 0.155641
3.446596 4.034732 -1.225083
5.798884 6.785423 0.467779
4.108119 4.804892 -1.228810
5.800649 6.781495 0.780741
5.073166 5.928381 -1.235832
5.809463 6.785803 1.096824
5.782534 6.751366 -1.091462
5.819965 6.792068 1.416671
5.796373 6.761550 -0.779172
5.860045 6.832807 1.749718
5.806994 6.767961 -0.467360
5.240886 6.105475 1.857646
5.819639 6.776713 -0.155920
4.564867 5.313241 1.876956
2.961747 3.445780 -1.217485
5.835808 6.786549 0.156234
3.460659 4.022677 -1.225083
5.838169 6.783306 0.469035
4.122304 4.787547 -1.228047
5.837289 6.776301 0.782484
5.079644 5.894177 -1.232391
5.822744 6.753455 1.094874
5.839776 6.770222 -1.097799
5.873321 6.806108 1.423867
5.840772 6.765405 -0.781961
5.901826 6.833111 1.755061
5.839724 6.758228 -0.468093
5.277460 6.104835 1.863045
5.872037 6.789633 -0.156688
4.587178 5.301657 1.878509
2.971228 3.432500 -1.216450
5.867353 6.775175 0.156443
3.456858 3.989915 -1.218785
5.854073 6.753734 0.468407
4.142953 4.777488 -1.229192
5.633907 6.493863 0.752154
5.100380 5.876242 -1.232391
5.627880 6.481058 1.053926
5.879290 6.767524 -1.100724
5.927180 6.819567 1.431062
5.889559 6.773222 -0.785273
5.945379 6.834331 1.760785
5.884699 6.761524 -0.469768
5.294050 6.080121 1.861245
5.901472 6.774675 -0.156827
4.608627 5.288148 1.879544
2.992377 3.432040 -1.220073
5.597110 6.416582 0.148625
3.478800 3.986330 -1.221484
5.608919 6.424318 0.446949
4.148396 4.749327 -1.225757
5.623019 6.434656 0.747622
5.123972 5.860930 -1.233016
5.653647 6.463868 1.054414
5.912617 6.756902 -1.102430
5.969758 6.819125 1.435443
5.928195 6.768594 -0.787191
6.006022 6.854360 1.771471
5.885155 6.713392 -0.467883
5.309346 6.053815 1.858996
5.588043 6.368718 -0.147892
4.627518 5.271625 1.879544
3.000813 3.416957 -1.218520
5.613398 6.389035 0.148450
3.498143 3.979751 -1.223284
5.631764 6.404301 0.446949
4.169149 4.738967 -1.226902
5.651096 6.420633 0.748319
5.144718 5.842728 -1.233016
5.684365 6.452753 1.055876
5.925961 6.724049 -1.100480
6.005542 6.811352 1.438258
5.568474 6.312861 -0.736466
6.054779 6.861158 1.778721
5.583523 6.324357 -0.442134
5.334414 6.039540 1.860345
5.615606 6.355106 -0.148031
4.653597 5.264099 1.882650
3.003764 3.396331 -1.214897
5.634341 6.367904 0.148415
3.514597 3.970434 -1.224184
5.662030 6.393575 0.447577
4.166137 4.702343 -1.221178
5.677439 6.405341 0.748842
5.165082 5.824734 -1.233016
5.717393 6.444751 1.057826
5.567264 6.272766 -1.029796
6.063383 6.828752 1.446393
5.585183 6.287427 -0.735769
6.098255 6.861993 1.784446
5.616181 6.316770 -0.442972
5.361939 6.028163 1.862595
5.643073 6.341441 -0.148171
4.664237 5.239165 1.879544
3.022025 3.393039 -1.217485
5.653874 6.345211 0.148345
3.523248 3.952323 -1.222384
5.694948 6.385696 0.448414
4.198211 4.705350 -1.225757
5.706397 6.392916 0.749714
5.180119 5.800776 -1.231765
5.734565 6.418833 1.056851
5.591772 6.256254 -1.030283
6.113517 6.836996 1.452650
5.623037 6.285712 -0.737861
6.145737 6.866997 1.791315
5.638197 6.297127 -0.442972
5.390750 6.018119 1.865294
5.670512 6.327661 -0.148311
4.682496 5.222852 1.879544
3.027401 3.375279 -1.214897
5.682666 6.332879 0.148520
3.526608 3.928400 -1.218785
5.714534 6.362806 0.448205
4.196240 4.670222 -1.220414
5.739333 6.384812 0.751108
5.185806 5.766501 -1.228323
5.754280 6.395825 1.056363
5.616233 6.239648 -1.030771
6.169070 6.850845 1.460159
5.644944 6.266046 -0.737861
6.195958 6.874670 1.798947
5.657469 6.274441 -0.442762
5.401282 5.987689 1.861695
5.703283 6.319705 -0.148590
4.713645 5.220814 1.884720
3.044344 3.370425 -1.216967
5.715463 6.324873 0.148799
3.537686 3.913174 -1.217885
5.739389 6.345783 0.448414
4.236227 4.681750 -1.227283
5.766933 6.370647 0.751805
5.221816 5.765935 -1.232078
5.787234 6.387469 1.058313
5.637979 6.220006 -1.030771
6.218158 6.857072 1.466104
5.677492 6.258108 -0.739255
6.252903 6.889344 1.808488
5.687392 6.263526 -0.443390
5.430012 5.977453 1.864394
5.726654 6.301238 -0.148625
4.733140 5.205758 1.885238
3.058690 3.362636 -1.218002
5.753656 6.322632 0.149218
3.551324 3.900802 -1.217885
5.764195 6.328663 0.448624
4.231386 4.643716 -1.221178
5.786451 6.347533 0.751457
5.245904 5.752051 -1.233016
5.817523 6.376027 1.059776
5.670363 6.212017 -1.032721
6.267365 6.863039 1.472048
5.706021 6.245606 -0.740127
6.302079 6.895009 1.815738
5.714612 6.249531 -0.443809
5.454790 5.962776 1.865744
5.744564 6.276785 -0.148520
4.749978 5.187780 1.884720
3.063885 3.344816 -1.215414
5.770287 6.296612 0.149078
3.567552 3.891254 -1.218785
5.799752 6.323222 0.449671
4.250225 4.631810 -1.221941
5.808573 6.327296 0.751457
5.247244 5.713335 -1.228636
5.842430 6.358605 1.060263
5.698729 6.199493 -1.033940
6.316689 6.868746 1.477993
5.712949 6.209522 -0.738209
6.347382 6.896080 1.821844
5.751274 6.245707 -0.444960
5.475571 5.943699 1.865744
5.785412 6.277280 -0.149009
4.762820 5.165487 1.882650
3.072922 3.331260 -1.214379
5.793588 6.277901 0.149113
3.586401 3.884505 -1.220584
5.829919 6.311742 0.450299
4.261037 4.611178 -1.220414
5.841444 6.318686 0.752851
5.256425 5.683383 -1.226133
5.872679 6.346914 1.061726
5.725729 6.185390 -1.034914
6.366129 6.874193 1.483937
5.756255 6.212926 -0.740998
6.392769 6.896920 1.827950
5.774399 6.227058 -0.445065
5.505563 5.934550 1.868893
5.804568 6.254116 -0.148939
4.782136 5.150246 1.883167
3.084532 3.320514 -1.214379
5.815398 6.257703 0.149113
3.578624 3.849205 -1.213386
5.851710 6.291545 0.450299
4.284931 4.605087 -1.222704
5.868552 6.304410 0.753549
5.279899 5.669682 -1.227072
5.891609 6.323921 1.061238
5.746747 6.165867 -1.034914
6.420397 6.885786 1.491133
5.779950 6.196340 -0.741347
6.442769 6.904040 1.835583
5.798014 6.210542 -0.445274
5.522745 5.913231 1.867994
5.833603 6.243473 -0.149148
4.807160 5.142775 1.886273
3.103443 3.318733 -1.217485
5.847046 6.250066 0.149393
3.599358 3.845854 -1.216085
5.867081 6.266273 0.449880
4.296152 4.586554 -1.221559
5.894875 6.290730 0.754246
5.308129 5.662230 -1.229262
5.926127 6.318829 1.063676
5.764446 6.143881 -1.034427
6.470234 6.893263 1.497391
5.808649 6.185853 -0.742393
6.501922 6.921271 1.845886
5.819945 6.192736 -0.445379
5.539654 5.892045 1.867094
5.858385 6.228463 -0.149253
4.828159 5.131026 1.887826
3.103838 3.297170 -1.213344
5.878810 6.242192 0.149672
