X Y Z
11.450180 1.405905 -0.604585
8.596109 1.051662 1.999365
11.475296 1.398825 -0.201785
7.387206 0.897221 1.993942
1.637852 0.198202 -0.442063
11.453293 1.380930 0.201366
1.861306 0.223595 -0.432806
11.432606 1.368315 0.603434
2.220417 0.264769 -0.434663
11.439552 1.359022 1.007869
2.656121 0.314373 -0.423625
11.428404 1.347585 1.412953
3.418642 0.401598 -0.422643
11.420724 1.336575 1.821210
5.960702 0.694949 -0.525026
10.257762 1.191399 2.007311
11.350594 1.313309 -0.598828
8.599370 0.991179 1.998465
11.480808 1.318223 -0.201715
7.412483 0.847822 1.999118
1.623841 0.185013 -0.437922
11.472590 1.302066 0.201540
1.864758 0.210814 -0.433256
11.455773 1.290032 0.604166
2.198799 0.246635 -0.430083
11.452721 1.279569 1.008218
2.666104 0.296696 -0.424876
11.441479 1.268204 1.413441
8.916458 0.984386 -1.101455
11.431740 1.257027 1.821523
5.995117 0.656572 -0.527641
10.287297 1.122100 2.011508
10.942515 1.188738 -0.576847
8.639016 0.934684 2.006114
11.481779 1.237183 -0.201575
7.422063 0.796465 2.000154
1.611646 0.172235 -0.434298
11.471458 1.220883 0.201366
1.868122 0.197996 -0.433706
11.466486 1.210235 0.604271
2.196562 0.230868 -0.429320
11.457412 1.199168 1.007869
2.654357 0.276642 -0.422686
11.457952 1.189117 1.414416
8.887571 0.918441 -1.097068
11.450062 1.178200 1.823087
10.920893 1.118933 -0.960456
10.304646 1.051251 2.013417
6.022702 0.611764 -0.317261
8.658903 0.875722 2.009263
11.494115 1.157397 -0.201645
7.408220 0.742703 1.994977
1.620499 0.161747 -0.436369
11.485671 1.141361 0.201471
1.867520 0.184757 -0.433256
11.484594 1.131134 0.604794
2.209843 0.216677 -0.431610
11.471453 1.119733 1.008392
2.634596 0.256003 -0.419244
11.462023 1.108715 1.413928
4.447871 0.428281 -0.548656
11.459974 1.098424 1.823400
10.928439 1.042664 -0.960456
10.300007 0.978172 2.011127
10.958046 1.035840 -0.576847
8.676446 0.816346 2.011962
11.509879 1.077871 -0.201785
7.426689 0.692222 1.998601
1.617741 0.150073 -0.435334
11.493359 1.061149 0.201471
1.870705 0.171894 -0.433706
11.500167 1.051657 0.605213
2.209347 0.201066 -0.431228
11.478991 1.039620 1.008392
4.068588 0.366691 -0.647013
11.461575 1.027959 1.412953
4.166031 0.371808 -0.513557
11.481137 1.019615 1.825590
4.473413 0.395307 -0.392898
10.324186 0.907789 2.014561
11.016741 0.963840 -0.579568
8.679993 0.755585 2.011512
11.529077 0.998526 -0.201994
7.440964 0.641186 2.001189
1.626424 0.139720 -0.437404
11.516255 0.984254 0.201750
1.856298 0.157835 -0.430106
11.493127 0.972175 0.604480
5.784898 0.486788 -1.128444
11.501685 0.962791 1.009786
7.000212 0.582903 -1.112562
11.480176 0.950903 1.414416
8.853290 0.729429 -1.090731
11.487811 0.941442 1.825590
4.223804 0.344291 -0.370761
10.337954 0.838128 2.016088
10.971286 0.884656 -0.576847
8.682992 0.696329 2.011062
11.539593 0.920346 -0.202064
7.464414 0.592050 2.006365
1.617731 0.127602 -0.434816
11.530820 0.904458 0.201889
1.869011 0.145782 -0.432806
11.509591 0.892688 0.605004
5.750964 0.443522 -1.121194
11.506140 0.882319 1.009612
6.980475 0.532216 -1.108807
11.502370 0.871934 1.416366
8.830454 0.665515 -1.087318
11.496074 0.861367 1.825903
11.480221 0.855143 -1.007172
10.363132 0.767386 2.019904
11.493089 0.846016 -0.603957
8.691529 0.635978 2.011962
11.529782 0.838602 -0.201785
7.451024 0.538671 2.001706
1.612801 0.115890 -0.433263
11.526881 0.823224 0.201715
4.925715 0.349623 -1.140052
11.531481 0.813439 0.605841
5.757837 0.403637 -1.121957
11.508044 0.801693 1.009264
6.974167 0.482789 -1.107243
11.514118 0.792020 1.417097
8.862611 0.605746 -1.090731
11.503778 0.781223 1.826216
11.531632 0.778060 -1.011181
10.379990 0.695807 2.022194
11.556508 0.769608 -0.606992
8.711313 0.576314 2.015561
11.547328 0.758876 -0.201994
7.470025 0.487647 2.005848
1.611643 0.104503 -0.432745
11.528356 0.742475 0.201645
4.928036 0.315227 -1.140052
11.534885 0.732788 0.605736
5.766393 0.363801 -1.123102
11.521314 0.721831 1.009961
6.961595 0.433107 -1.104740
11.517386 0.711496 1.416853
8.823034 0.541186 -1.085368
11.516838 0.701374 1.827467
11.546727 0.698137 -1.012052
10.372836 0.622619 2.019904
11.563593 0.689029 -0.607097
8.722905 0.515944 2.017361
11.556337 0.678477 -0.202064
7.467462 0.435148 2.004295
4.264198 0.246619 -1.144498
11.591150 0.665360 0.202657
4.922331 0.280426 -1.138252
11.685277 0.660661 0.613377
5.760944 0.323222 -1.121575
11.536002 0.642249 1.010832
6.960492 0.384506 -1.104114
11.514120 0.631078 1.415878
8.826576 0.479962 -1.085368
11.537204 0.622371 1.829970
11.563223 0.618778 -1.013098
10.414146 0.552788 2.027155
11.564092 0.608831 -0.606888
8.730155 0.455857 2.018261
11.582713 0.599803 -0.202448
7.481862 0.384211 2.007401
4.269656 0.217412 -1.145533
11.809157 0.596224 0.206392
4.904684 0.245511 -1.133753
11.791289 0.585135 0.618716
5.759114 0.283305 -1.120812
11.550105 0.563189 1.011704
6.947193 0.335748 -1.101612
11.538025 0.552634 1.418315
8.821744 0.418723 -1.084393
11.545166 0.543005 1.830596
11.587116 0.539974 -1.014841
10.423593 0.481252 2.028300
11.572005 0.529276 -0.607097
8.733090 0.395660 2.018261
11.568594 0.519131 -0.202134
7.492053 0.332965 2.009471
4.265263 0.187717 -1.143980
12.096680 0.527029 0.211349
4.917946 0.212089 -1.136453
12.094375 0.516222 0.634416
5.741326 0.242515 -1.116996
11.555731 0.483003 1.011878
6.967124 0.288126 -1.104427
11.559448 0.472927 1.420509
8.804617 0.356324 -1.081956
11.544733 0.462108 1.829970
11.588623 0.458737 -1.014667
10.428674 0.408206 2.028681
11.595395 0.448744 -0.608144
8.735658 0.334206 2.018261
11.583955 0.438051 -0.202343
7.490355 0.279936 2.008436
4.256831 0.157207 -1.141392
12.022167 0.438666 0.209987
4.923218 0.177461 -1.137353
12.085746 0.430293 0.633788
5.754669 0.202340 -1.119286
11.562838 0.401447 1.012227
6.957142 0.238466 -1.102550
11.572422 0.391543 1.421728
8.814852 0.294344 -1.082931
11.555609 0.380752 1.831222
11.591576 0.376811 -1.014667
10.419526 0.334103 2.026392
11.616244 0.367338 -0.609086
8.751436 0.272875 2.021410
11.588760 0.356220 -0.202378
7.492147 0.226983 2.008436
4.259767 0.127171 -1.141910
11.877050 0.349455 0.207404
4.908763 0.142312 -1.133753
11.922770 0.340517 0.625101
5.748098 0.161688 -1.117759
11.567361 0.320391 1.012401
6.950743 0.189523 -1.101299
11.574876 0.310617 1.421728
8.824630 0.233008 -1.083906
11.571805 0.300555 1.833412
11.611843 0.296589 -1.016236
10.443185 0.262236 2.030589
11.608529 0.286494 -0.608562
8.757013 0.212344 2.022310
11.598943 0.276256 -0.202518
7.499329 0.175381 2.009989
4.264405 0.097890 -1.142945
11.931156 0.268737 0.208312
4.894041 0.108124 -1.130154
11.880904 0.257362 0.622798
5.741225 0.121891 -1.116233
11.585231 0.240969 1.013796
6.936084 0.141279 -1.098796
11.580712 0.230891 1.422215
8.786332 0.171391 -1.079031
11.591377 0.221111 1.836228
11.617596 0.216604 -1.016585
10.476151 0.190807 2.036695
11.618216 0.206600 -0.608981
8.762165 0.152036 2.023210
11.626564 0.196726 -0.202971
7.666477 0.126416 2.054506
4.261115 0.068427 -1.141910
11.824755 0.184790 0.206427
4.906361 0.074559 -1.132854
11.842455 0.174859 0.620704
5.732114 0.082167 -1.114325
11.608531 0.161400 1.015713
6.946769 0.093591 -1.100360
11.591953 0.151178 1.423434
8.803184 0.111014 -1.080981
11.602502 0.141315 1.837792
11.638736 0.136741 -1.018328
10.467402 0.118469 2.034787
11.629350 0.126608 -0.609505
8.766903 0.091667 2.024110
11.627644 0.116568 -0.202971
7.651712 0.073412 2.050364
4.261486 0.039049 -1.141910
11.833746 0.103336 0.206567
4.906759 0.040733 -1.132854
11.867346 0.093402 0.621961
5.724691 0.042589 -1.112798
11.611360 0.081381 1.015887
6.949225 0.045711 -1.100673
11.610586 0.071369 1.425628
8.775950 0.050163 -1.077569
11.597275 0.061293 1.836853
11.643386 0.056520 -1.018676
10.477786 0.046347 2.036695
11.641930 0.046480 -0.610133
8.771224 0.031239 2.025009
11.626172 0.036398 -0.202937
7.628854 0.020596 2.044153
4.242335 0.009626 -1.136733
11.822179 0.021665 0.206357
4.899128 0.006840 -1.131054
11.843741 0.011369 0.620704
5.728775 0.003000 -1.113561
11.613638 0.001013 1.016062
6.943449 -0.002424 -1.099734
0.000000 -0.000000 0.000000
8.776087 -0.010722 -1.077569
0.000000 -0.000000 0.000000
11.631544 -0.024361 -1.017630
10.491598 -0.026551 2.039367
11.653955 -0.034578 -0.610761
8.777075 -0.029872 2.026359
11.652139 -0.044741 -0.203390
7.595971 -0.032481 2.035353
4.238435 -0.019973 -1.135698
11.818043 -0.060848 0.206287
4.906851 -0.027405 -1.132854
11.851520 -0.071363 0.621123
5.722767 -0.036957 -1.112416
11.629301 -0.080174 1.017456
6.872151 -0.050376 -1.088471
11.636260 -0.090377 1.428796
8.771828 -0.071957 -1.077081
11.622683 -0.100415 1.840921
11.643044 -0.105672 -1.018676
10.483304 -0.099721 2.037840
11.669407 -0.116095 -0.611598
8.784447 -0.091227 2.028159
11.657542 -0.126152 -0.203495
7.572379 -0.085249 2.029141
4.251715 -0.049721 -1.139321
11.829328 -0.143433 0.206497
4.883158 -0.061314 -1.127455
11.882689 -0.154321 0.622798
5.720408 -0.076757 -1.112035
11.642407 -0.161235 1.018676
6.893362 -0.098437 -1.091913
11.637337 -0.171196 1.429040
8.739360 -0.132330 -1.073181
11.641459 -0.181291 1.844049
11.671915 -0.186796 -1.021291
10.494141 -0.172470 2.040130
11.662334 -0.196695 -0.611284
8.789452 -0.152030 2.029508
11.688383 -0.207210 -0.204054
7.542637 -0.136966 2.021377
4.241613 -0.078851 -1.136733
11.844053 -0.225285 0.206776
4.882619 -0.094977 -1.127455
11.881343 -0.236237 0.622798
5.711892 -0.116032 -1.110508
11.660939 -0.241908 1.020419
6.912269 -0.146376 -1.095041
11.651757 -0.251763 1.430990
8.742209 -0.192664 -1.073669
11.647832 -0.261720 1.845301
11.686285 -0.267622 -1.022685
10.480926 -0.244537 2.037840
11.678671 -0.277518 -0.612226
8.786247 -0.212574 2.029059
11.698671 -0.288080 -0.204263
7.562757 -0.189494 2.027071
4.233244 -0.107894 -1.134663
11.914182 -0.308863 0.208033
4.885743 -0.128791 -1.128354
11.927344 -0.319620 0.625310
5.699178 -0.155211 -1.108219
11.666951 -0.322831 1.021117
6.895292 -0.193807 -1.092538
11.665606 -0.332982 1.432940
8.728756 -0.252964 -1.072206
11.659555 -0.342992 1.847491
11.680160 -0.348699 -1.022337
10.514294 -0.318486 2.044709
11.688435 -0.359156 -0.612854
8.778710 -0.273582 2.027709
11.700376 -0.369743 -0.204333
7.543874 -0.241689 2.022412
4.215010 -0.136880 -1.130004
11.689889 -0.384730 0.204158
4.884725 -0.162897 -1.128354
11.681295 -0.394652 0.612540
5.699917 -0.195061 -1.108600
11.678352 -0.404756 1.022337
6.881926 -0.241525 -1.090661
11.680852 -0.415049 1.435133
8.699004 -0.312897 -1.068794
11.664773 -0.424670 1.848743
11.685405 -0.430527 -1.023034
10.496120 -0.391296 2.041656
11.709593 -0.441651 -0.614110
8.798007 -0.335679 2.032658
11.713495 -0.452035 -0.204612
7.526560 -0.293746 2.018271
4.229395 -0.166913 -1.134145
11.692910 -0.466634 0.204263
4.871784 -0.196576 -1.125655
11.694212 -0.477035 0.613377
5.704296 -0.235216 -1.109745
11.691153 -0.487258 1.023731
6.876116 -0.289622 -1.090035
11.693517 -0.497707 1.437083
8.438768 -0.362911 -1.037108
11.685181 -0.507696 1.852497
11.698011 -0.513431 -1.024429
10.471530 -0.464235 2.037458
11.718162 -0.524690 -0.614738
8.807101 -0.398243 2.035357
11.733985 -0.535787 -0.205031
7.547455 -0.347967 2.024483
4.231969 -0.196984 -1.135180
17.721743 -0.832733 0.309675
4.866379 -0.230823 -1.124755
17.763250 -0.850414 0.931999
5.708374 -0.275816 -1.110890
11.699357 -0.570467 1.024777
6.866005 -0.337831 -1.088784
11.693672 -0.580547 1.437571
8.662009 -0.433873 -1.064894
11.703002 -0.591377 1.855938
11.710008 -0.596917 -1.025823
10.505239 -0.540158 2.044709
11.722138 -0.607920 -0.615157
8.804066 -0.460487 2.035357
11.749874 -0.619769 -0.205380
7.567956 -0.402539 2.030694
4.230471 -0.226893 -1.135180
17.739392 -0.958984 0.310094
4.864635 -0.265056 -1.124755
17.732912 -0.973767 0.930743
5.702382 -0.315568 -1.110127
11.720947 -0.653635 1.027043
6.855594 -0.385238 -1.087532
11.703226 -0.662636 1.439277
8.623117 -0.491921 -1.060507
11.708489 -0.672929 1.857503
11.721519 -0.678681 -1.027218
10.520868 -0.613654 2.048525
7.056131 -0.414577 -0.370434
8.789030 -0.520144 2.032658
11.745360 -0.700117 -0.205380
7.545750 -0.453009 2.025518
4.224972 -0.255450 -1.134145
12.015913 -0.731636 0.210127
4.866608 -0.298400 -1.125655
12.032542 -0.742925 0.631800
5.684426 -0.353401 -1.107074
11.728157 -0.734148 1.028089
6.844927 -0.431396 -1.086281
11.722218 -0.743790 1.442202
8.647303 -0.552376 -1.063919
11.703638 -0.752610 1.857503
11.716628 -0.758450 -1.027218
10.514488 -0.685125 2.048144
6.861820 -0.450048 -0.360385
8.793064 -0.580470 2.034457
11.748303 -0.780579 -0.205520
7.528998 -0.503458 2.021894
4.205787 -0.283035 -1.129486
12.010654 -0.813408 0.210127
4.866408 -0.331652 -1.126105
12.039162 -0.825630 0.632428
5.672096 -0.391409 -1.105166
11.726864 -0.814238 1.028438
6.833950 -0.477427 -1.085029
11.738666 -0.825094 1.444883
8.643343 -0.611223 -1.063919
11.717948 -0.833658 1.860632
8.306939 -0.594538 -0.728622
10.515456 -0.757101 2.049289
6.798837 -0.492416 -0.357245
8.785022 -0.640026 2.033558
11.770639 -0.862574 -0.206008
7.531177 -0.555120 2.023447
4.215323 -0.312513 -1.132592
12.052699 -0.898711 0.210965
4.852378 -0.363894 -1.123406
12.160726 -0.917171 0.639127
5.679088 -0.430751 -1.107074
11.740916 -0.895556 1.030181
6.783272 -0.520307 -1.077521
11.742674 -0.905740 1.446102
8.627108 -0.669121 -1.062457
11.739573 -0.915550 1.865012
8.324549 -0.652781 -0.730539
10.517888 -0.829276 2.050815
6.620118 -0.524793 -0.348034
8.801830 -0.701511 2.038506
11.772468 -0.943313 -0.206148
7.521447 -0.605904 2.021894
4.212979 -0.342669 -1.132592
12.081829 -0.987934 0.211593
4.836051 -0.397543 -1.120256
12.114026 -1.001076 0.637033
5.666068 -0.470689 -1.105166
11.750064 -0.981195 1.031575
6.726208 -0.564594 -1.069073
11.741788 -0.990694 1.446833
7.700323 -0.653043 -0.948875
11.760228 -1.002457 1.869392
8.303745 -0.711426 -0.729145
10.497938 -0.903971 2.048144
6.592278 -0.570518 -0.346778
8.790707 -0.764594 2.037157
11.793228 -1.030866 -0.206636
7.532260 -0.661678 2.026035
4.202819 -0.371025 -1.130522
0.000000 -0.000000 0.000000
4.833195 -0.430873 -1.120256
0.000000 -0.000000 0.000000
5.658778 -0.509388 -1.104402
11.774769 -1.065048 1.034364
6.541167 -0.594501 -1.040289
11.754448 -1.073423 1.449270
8.587169 -0.787916 -1.058801
11.758938 -1.084052 1.870330
11.720866 -1.085635 -1.029832
10.495366 -0.976686 2.048907
6.639891 -0.620786 -0.349500
8.792987 -0.825908 2.038956
11.785841 -1.112144 -0.206636
7.527520 -0.713590 2.026035
4.190545 -0.399075 -1.127933
0.000000 -0.000000 0.000000
4.832050 -0.464369 -1.120706
0.000000 -0.000000 0.000000
5.643407 -0.547251 -1.102113
11.783011 -1.147743 1.035759
6.330484 -0.619385 -1.007438
11.774426 -1.157151 1.452683
8.551901 -0.844173 -1.055145
11.762980 -1.166262 1.872208
0.000000 -0.000000 -0.000000
10.502058 -1.050385 2.051578
6.583785 -0.661356 -0.346778
8.785146 -0.886312 2.038506
11.805746 -1.196192 -0.207125
7.533953 -0.766641 2.029141
4.172320 -0.426384 -1.123792
26.890638 -2.759757 0.471843
4.822918 -0.497071 -1.119356
0.000000 -0.000000 0.000000
5.645358 -0.586752 -1.103258
11.776800 -1.229155 1.035933
6.345710 -0.665071 -1.010567
11.801705 -1.242036 1.457070
8.557722 -0.904361 -1.056607
11.778232 -1.249829 1.875962
7.354123 -0.783576 -0.647044
10.473094 -1.120464 2.047381
6.658503 -0.715262 -0.350965
8.792389 -0.948318 2.041656
11.825052 -1.280566 -0.207614
7.520807 -0.817727 2.027071
4.150077 -0.453041 -1.118616
12.101678 -1.326351 0.212501
4.811628 -0.529456 -1.117557
12.121521 -1.339098 0.639127
5.633374 -0.624792 -1.101731
11.799729 -1.313843 1.038722
6.545142 -0.731625 -1.043105
11.802725 -1.324474 1.458289
8.582846 -0.966892 -1.060507
11.794853 -1.333884 1.880029
7.499001 -0.851337 -0.660292
10.469022 -1.193084 2.048144
6.649445 -0.760695 -0.350756
8.785643 -1.008910 2.041656
11.843755 -1.365263 -0.208102
7.522667 -0.870444 2.029141
4.162206 -0.483424 -1.122757
0.000000 -0.000000 0.000000
4.807864 -0.562614 -1.117557
0.000000 -0.000000 0.000000
5.640631 -0.664992 -1.104021
11.810177 -1.397500 1.040465
6.732178 -0.799561 -1.073766
11.805140 -1.407221 1.459751
6.707435 -0.802485 -0.829443
11.810874 -1.418228 1.884097
6.677986 -0.804799 -0.588476
10.505376 -1.270651 2.056921
6.640077 -0.806037 -0.350546
8.782347 -1.069926 2.042556
11.847956 -1.448580 -0.208347
7.520322 -0.922755 2.030177
4.162609 -0.512579 -1.123792
0.000000 -0.000000 0.000000
4.799997 -0.595319 -1.116657
0.000000 -0.000000 0.000000
5.614468 -0.701309 -1.099823
11.825921 -1.482429 1.042731
6.742158 -0.848146 -1.076269
11.820705 -1.492254 1.462920
6.689890 -0.847502 -0.827980
11.818379 -1.502440 1.886913
6.707807 -0.855720 -0.591613
10.478760 -1.341431 2.053486
6.761090 -0.868514 -0.357245
8.768884 -1.130321 2.041206
11.833604 -1.530617 -0.208277
7.525197 -0.976685 2.033282
4.151267 -0.540629 -1.121722
11.855385 -1.549215 0.208696
4.801520 -0.629575 -1.118007
11.819784 -1.555055 0.624787
5.617221 -0.741516 -1.101350
11.842936 -1.568616 1.045172
6.743905 -0.896235 -1.077521
11.841482 -1.578939 1.466819
6.685778 -0.894449 -0.828224
11.829138 -1.587801 1.890354
6.668102 -0.898008 -0.588650
10.484704 -1.416656 2.056539
0.000000 -0.000000 -0.000000
8.753056 -1.190461 2.039406
11.848388 -1.616707 -0.208731
7.502883 -1.027100 2.029141
4.137822 -0.568283 -1.119134
11.866080 -1.634880 0.209080
4.804737 -0.664095 -1.119806
11.852190 -1.643375 0.627089
5.608035 -0.780050 -1.100586
11.843581 -1.652585 1.046218
6.745340 -0.944169 -1.078772
11.845960 -1.663326 1.468769
6.339347 -0.892912 -0.786057
11.845230 -1.673633 1.894734
6.328340 -0.896924 -0.559191
10.488254 -1.491124 2.059211
0.000000 -0.000000 -0.000000
8.760053 -1.253127 2.043005
11.876530 -1.704161 -0.209429
7.497530 -1.079117 2.029659
4.160574 -0.600660 -1.126380
11.868380 -1.718652 0.209324
4.796187 -0.696643 -1.118907
11.868248 -1.729076 0.628555
5.602524 -0.818693 -1.100586
11.859505 -1.738241 1.048658
6.730853 -0.989500 -1.077521
11.853850 -1.747848 1.471207
6.344823 -0.938336 -0.787520
11.854905 -1.758443 1.898176
6.325948 -0.941116 -0.559540
10.471899 -1.562525 2.058066
0.000000 -0.000000 -0.000000
8.762769 -1.315224 2.045705
11.892183 -1.790165 -0.209918
7.501374 -1.132509 2.032765
4.137234 -0.626436 -1.121204
11.885905 -1.804935 0.209848
4.770079 -0.726464 -1.113958
11.881713 -1.814775 0.629916
5.598687 -0.857595 -1.100968
11.868902 -1.823287 1.050575
6.714110 -1.034375 -1.075956
11.857213 -1.831952 1.473157
6.338204 -0.982055 -0.787520
11.875683 -1.845285 1.903495
4.582976 -0.714141 -0.405797
10.458939 -1.634378 2.057684
0.000000 -0.000000 -0.000000
8.738092 -1.373183 2.042106
11.956597 -1.884248 -0.211279
7.497204 -1.184800 2.033800
4.142357 -0.656455 -1.123792
12.013399 -1.909117 0.212326
4.691828 -0.747678 -1.096861
12.003031 -1.918076 0.637033
5.573257 -0.893065 -1.097152
11.887525 -1.910125 1.053364
6.699018 -1.079381 -1.074705
11.879576 -1.919351 1.477544
8.451508 -1.369224 -1.051245
11.876329 -1.929329 1.905685
4.520916 -0.736430 -0.400742
10.455173 -1.707709 2.059211
0.000000 -0.000000 -0.000000
8.734187 -1.434338 2.043455
12.051845 -1.984501 -0.213199
7.486952 -1.236143 2.033282
4.120580 -0.682158 -1.119134
12.017717 -1.994773 0.212640
4.703871 -0.782833 -1.100910
11.995466 -2.001569 0.637347
5.576670 -0.932964 -1.099060
11.889848 -1.994345 1.054759
6.687559 -1.124664 -1.074079
11.893543 -2.005371 1.480956
8.434101 -1.425764 -1.050270
11.882320 -2.013877 1.908813
4.472560 -0.759990 -0.396907
10.462612 -1.782417 2.063027
0.000000 -0.000000 -0.000000
8.729959 -1.494886 2.044805
12.051831 -2.068988 -0.213443
7.476454 -1.286789 2.032765
4.096804 -0.706905 -1.113957
14.313205 -2.476018 0.253549
4.759876 -0.825489 -1.115307
0.000000 -0.000000 0.000000
5.539245 -0.965508 -1.092954
11.903474 -2.080031 1.057199
6.668074 -1.168113 -1.072202
11.908945 -2.091431 1.484612
8.424200 -1.483140 -1.050270
11.891681 -2.098830 1.912568
4.355454 -0.770630 -0.386971
10.477301 -1.858392 2.068370
0.000000 -0.000000 -0.000000
8.740685 -1.558035 2.049754
12.068965 -2.156602 -0.214001
7.471325 -1.338331 2.033800
4.082390 -0.733067 -1.111369
14.447518 -2.600902 0.256236
4.744530 -0.856294 -1.113058
0.000000 -0.000000 0.000000
5.464868 -0.991288 -1.079597
11.914347 -2.166613 1.059465
5.408334 -0.985969 -0.870714
11.919570 -2.178445 1.487781
8.417613 -1.542264 -1.050757
11.907884 -2.187184 1.917574
4.267680 -0.785817 -0.379650
10.533564 -1.944378 2.082108
12.068276 -2.233183 -0.643209
8.733365 -1.620062 2.050654
12.084949 -2.247313 -0.214560
7.459802 -1.390632 2.033282
4.088500 -0.764034 -1.114475
14.472014 -2.711060 0.257004
4.424256 -0.830825 -1.039274
0.000000 -0.000000 0.000000
5.548397 -1.047002 -1.097533
11.932015 -2.257072 1.062429
6.563765 -1.244612 -1.058123
11.911675 -2.264127 1.488756
0.000000 -0.000000 -0.000000
11.927052 -2.277971 1.923205
4.258105 -0.815214 -0.379302
10.469427 -2.009166 2.072186
12.063957 -2.320695 -0.643837
8.700647 -1.677695 2.045705
12.104102 -2.339510 -0.215188
7.468751 -1.447002 2.038459
4.075412 -0.791442 -1.112404
14.505501 -2.823525 0.257947
4.337950 -0.846355 -1.020378
0.000000 -0.000000 0.000000
4.745199 -0.930111 -0.939925
11.945151 -2.346793 1.065043
6.423051 -1.264810 -1.036848
11.936360 -2.355887 1.493874
0.000000 -0.000000 -0.000000
11.935957 -2.366631 1.927273
4.322633 -0.859041 -0.385577
10.528255 -2.097066 2.086687
12.078747 -2.411380 -0.645512
8.702071 -1.741215 2.048854
12.107054 -2.428019 -0.215537
7.458459 -1.499148 2.038459
4.096300 -0.825215 -1.119651
14.552081 -2.938179 0.259133
4.354856 -0.881257 -1.025777
0.000000 -0.000000 0.000000
4.732818 -0.962043 -0.938780
11.951904 -2.434901 1.067135
6.642447 -1.356251 -1.073766
11.942960 -2.443936 1.496799
0.000000 -0.000000 -0.000000
11.942364 -2.454674 1.931027
4.316530 -0.889197 -0.385577
10.467213 -2.160988 2.077528
12.104646 -2.504549 -0.647814
8.685886 -1.801132 2.047954
12.109387 -2.516551 -0.215886
7.442138 -1.550000 2.036906
4.086657 -0.853003 -1.118616
12.108054 -2.532744 0.215921
4.348607 -0.911591 -1.025777
12.096982 -2.541310 0.647814
4.704876 -0.990508 -0.934582
11.952228 -2.521657 1.068704
4.993974 -1.055866 -0.808453
11.966485 -2.535438 1.501918
0.000000 -0.000000 -0.000000
11.001506 -2.340888 1.781476
0.000000 -0.000000 -0.000000
10.536482 -2.251434 2.094320
7.583448 -1.623847 -0.406441
8.696097 -1.866018 2.053353
12.119092 -2.605991 -0.216375
7.431267 -1.601309 2.036906
4.069350 -0.878709 -1.115510
12.113759 -2.621231 0.216340
4.378404 -0.949395 -1.034325
12.112353 -2.631856 0.649594
4.705608 -1.024591 -0.936109
11.975438 -2.612915 1.072364
6.584442 -1.439629 -1.067509
10.917122 -2.391859 1.372249
4.760036 -1.045038 -0.598378
10.846201 -2.386118 1.758949
0.000000 -0.000000 -0.000000
10.413356 -2.300304 2.072949
4.120471 -0.912072 -0.221172
8.675416 -1.924237 2.051554
12.110599 -2.691647 -0.216549
7.393651 -1.646623 2.029659
4.049997 -0.903797 -1.111887
11.993893 -2.682120 0.214525
4.552384 -1.020134 -1.077066
11.988601 -2.692062 0.643942
4.713710 -1.060660 -0.939162
11.990034 -2.703514 1.075328
4.697554 -1.061386 -0.762774
10.768530 -2.438090 1.355675
4.698419 -1.065946 -0.591554
10.713678 -2.435624 1.740177
0.000000 -0.000000 -0.000000
10.513721 -2.399938 2.096228
4.039977 -0.924072 -0.217194
8.669261 -1.986969 2.053353
12.036760 -2.764387 -0.215572
7.419499 -1.707429 2.040012
4.064214 -0.937177 -1.117581
12.021396 -2.777637 0.215363
4.636189 -1.073385 -1.098661
12.008185 -2.785763 0.646035
4.700358 -1.092619 -0.938017
12.009434 -2.797238 1.078814
4.697629 -1.096360 -0.764026
12.001641 -2.806605 1.513374
4.686901 -1.098224 -0.591066
12.005814 -2.818771 1.953241
3.991378 -0.938972 -0.358733
10.414326 -2.454826 2.079818
3.969200 -0.937456 -0.213740
8.656895 -2.048647 2.053803
12.049997 -2.857244 -0.216166
7.409124 -1.760277 2.040529
4.049971 -0.964092 -1.115510
12.046199 -2.873212 0.216166
4.641753 -1.109300 -1.101810
12.019271 -2.878015 0.647710
4.690608 -1.125358 -0.937635
12.020357 -2.889508 1.081603
4.708966 -1.134163 -0.767155
12.016238 -2.899751 1.517761
4.690598 -1.134125 -0.592529
12.002868 -2.907750 1.956057
3.961407 -0.961522 -0.356641
10.396714 -2.528379 2.079818
3.966355 -0.966435 -0.213949
8.678168 -2.118568 2.062351
12.041154 -2.945199 -0.216375
7.388991 -1.810766 2.038459
4.031798 -0.989932 -1.112404
12.056658 -2.965932 0.216724
4.658394 -1.148145 -1.107659
12.049042 -2.975351 0.650431
4.705406 -1.164143 -0.942215
12.018971 -2.979195 1.083346
4.696997 -1.166468 -0.766529
12.033968 -2.994201 1.522636
0.000000 -0.000000 -0.000000
12.018429 -3.001614 1.962001
3.969974 -0.993368 -0.358036
10.370965 -2.599896 2.078292
3.963299 -0.995420 -0.214159
8.778256 -2.208865 2.089795
12.062694 -3.040993 -0.217143
7.374134 -1.862477 2.037941
4.032547 -1.018894 -1.114475
12.053937 -3.051164 0.217038
4.644932 -1.177883 -1.106309
12.063721 -3.064705 0.652315
4.718458 -1.200856 -0.946413
12.037460 -3.069079 1.086832
1.980919 -0.505966 -0.323819
12.040735 -3.080967 1.526048
4.349647 -1.114979 -0.551337
12.040383 -3.091935 1.968884
3.947884 -1.015618 -0.356641
10.338372 -2.664362 2.075239
3.943118 -1.018016 -0.213426
8.731463 -2.258262 2.082147
12.100537 -3.135186 -0.218190
7.365505 -1.911751 2.038976
4.042254 -1.051045 -1.119134
12.073253 -3.144777 0.217771
1.919545 -0.500876 -0.458000
12.075156 -3.156387 0.654095
1.965693 -0.514728 -0.394975
12.054560 -3.162103 1.090318
1.975473 -0.519108 -0.323506
12.046085 -3.170978 1.529460
2.124861 -0.560322 -0.269819
12.062708 -3.186472 1.976080
3.944641 -1.043830 -0.356990
10.346326 -2.742614 2.080581
3.943727 -1.047226 -0.213845
8.668606 -2.305880 2.070899
12.126943 -3.231405 -0.219063
7.355884 -1.963480 2.040012
1.924142 -0.514493 -0.533685
12.089918 -3.238282 0.218469
1.927340 -0.517128 -0.460700
12.085898 -3.248371 0.655874
1.973473 -0.531329 -0.397264
12.063252 -3.253433 1.093107
2.067198 -0.558474 -0.339150
12.062261 -3.264319 1.534335
2.113284 -0.572879 -0.268844
12.061424 -3.275250 1.979522
3.962344 -1.077798 -0.359256
10.334749 -2.815941 2.082108
3.940267 -1.075441 -0.214054
8.720174 -2.384087 2.087096
12.114021 -3.317572 -0.219237
7.357077 -2.018233 2.044153
1.913098 -0.525698 -0.531614
12.113578 -3.334290 0.219307
1.963180 -0.541280 -0.470148
12.090170 -3.339057 0.657340
2.070048 -0.572665 -0.417490
12.086617 -3.349289 1.097291
2.124208 -0.589619 -0.349162
12.081546 -3.359097 1.539697
2.160917 -0.601814 -0.275425
12.061390 -3.364693 1.983276
3.943306 -1.101872 -0.358210
10.337778 -2.893472 2.086687
3.940452 -1.104736 -0.214473
8.632237 -2.424126 2.070000
12.131286 -3.412378 -0.219970
7.339269 -2.067857 2.043118
1.968924 -0.555665 -0.548179
12.107622 -3.422617 0.219621
2.062529 -0.584001 -0.494892
12.109135 -3.434317 0.659642
2.126484 -0.604090 -0.429702
12.090069 -3.440168 1.099731
2.165686 -0.617244 -0.356671
12.096278 -3.453206 1.544572
2.177711 -0.622701 -0.278106
12.083484 -3.460818 1.990785
3.924125 -1.125734 -0.357164
10.313811 -2.963587 2.085924
3.928904 -1.130771 -0.214263
6.169850 -1.778612 1.482427
12.136291 -3.504251 -0.220494
6.124137 -1.771152 1.708206
2.046691 -0.592876 -0.570955
12.124069 -3.517707 0.220354
2.112722 -0.613977 -0.507939
12.121607 -3.528321 0.661631
2.184467 -0.636869 -0.442295
12.098577 -3.532930 1.102694
2.180339 -0.637705 -0.359799
12.110285 -3.547677 1.549447
3.076237 -0.902615 -0.393638
12.106719 -3.557964 1.998607
3.948764 -1.162325 -0.360128
10.278070 -3.030179 2.082871
3.928677 -1.160092 -0.214682
6.133148 -1.813920 1.476579
12.148274 -3.598627 -0.221157
6.054368 -1.796295 1.692159
2.099962 -0.624031 -0.587002
12.134009 -3.611541 0.220982
2.149517 -0.640799 -0.517837
12.140952 -3.625144 0.664039
2.206344 -0.659837 -0.447638
12.117733 -3.629732 1.106704
2.194790 -0.658469 -0.362928
12.108214 -3.638398 1.552372
3.052793 -0.918786 -0.391444
12.123333 -3.654479 2.005490
3.934870 -1.188007 -0.359605
10.290575 -3.111808 2.089740
3.912862 -1.185090 -0.214263
6.049502 -1.835096 1.459482
12.172642 -3.698331 -0.222064
6.013967 -1.830050 1.684394
2.136208 -0.651067 -0.598390
12.150577 -3.709008 0.221750
2.187854 -0.668894 -0.528185
12.140175 -3.717417 0.665399
2.220453 -0.680980 -0.451454
12.135903 -3.727696 1.110713
6.381613 -1.963241 -1.057497
12.128048 -3.736868 1.558221
3.055789 -0.943003 -0.392663
12.131496 -3.749525 2.011121
3.939803 -1.219573 -0.360825
10.279851 -3.187061 2.092030
3.906401 -1.212970 -0.214368
5.980718 -1.859924 1.445985
12.178983 -3.793331 -0.222658
5.954939 -1.857608 1.671453
2.179554 -0.680943 -0.611848
12.170190 -3.808075 0.222588
2.220322 -0.695807 -0.537183
12.146322 -3.812248 0.667179
5.341521 -1.679052 -1.088375
12.160895 -3.828483 1.115419
6.352680 -2.002992 -1.054994
12.147096 -3.835792 1.564071
3.056702 -0.966708 -0.393638
12.142687 -3.846057 2.017379
3.953982 -1.254277 -0.362917
10.249867 -3.256372 2.090503
3.909257 -1.243845 -0.214996
5.936023 -1.891573 1.438337
12.175064 -3.885559 -0.223077
5.892142 -1.883255 1.657477
3.942879 -1.262125 -1.109298
12.177585 -3.903934 0.223216
2.220977 -0.713078 -0.538533
12.176453 -3.915293 0.670319
5.325931 -1.715098 -1.087611
12.166107 -3.923684 1.118382
6.361099 -2.054579 -1.058748
12.161573 -3.933942 1.569433
3.053655 -0.989247 -0.394125
12.153120 -3.942926 2.023636
3.918601 -1.273231 -0.360476
10.226883 -3.327850 2.090503
3.944154 -1.285340 -0.217404
5.874506 -1.917248 1.426640
12.195160 -3.985993 -0.223949
5.829279 -1.908118 1.643501
3.944986 -1.293232 -1.112404
12.188032 -4.001329 0.223914
4.518898 -1.485738 -1.098211
12.192456 -4.014571 0.672726
5.319421 -1.754082 -1.088756
12.164904 -4.017270 1.120823
6.329721 -2.093355 -1.055933
12.175270 -4.032480 1.574796
2.975077 -0.986794 -0.384863
12.175913 -4.044487 2.032084
3.898274 -1.296783 -0.359430
10.233204 -3.409094 2.096609
3.980555 -1.328014 -0.219916
5.835102 -1.949567 1.420341
12.263750 -4.103393 -0.225729
5.771854 -1.934036 1.631078
3.913883 -1.313366 -1.106193
12.330398 -4.143649 0.227056
4.410527 -1.484306 -1.074366
12.325008 -4.153811 0.681623
5.314487 -1.793687 -1.090283
12.179975 -4.116771 1.124832
6.320566 -2.139394 -1.056871
12.184422 -4.130126 1.579670
2.951198 -1.001797 -0.382670
12.199748 -4.147194 2.040844
0.000000 -0.000000 -0.000000
10.198005 -3.476650 2.094320
3.963627 -1.353189 -0.219497
5.766031 -1.971343 1.406844
12.359669 -4.231660 -0.228033
5.728972 -1.964259 1.622795
3.937508 -1.351950 -1.115510
0.000000 -0.000000 0.000000
4.390844 -1.511889 -1.072117
0.000000 -0.000000 0.000000
5.301835 -1.830745 -1.090283
12.209310 -4.221888 1.130236
6.299876 -2.181528 -1.055933
12.192802 -4.228095 1.584545
2.914128 -1.011956 -0.378770
12.202216 -4.243292 2.046163
0.000000 -0.000000 -0.000000
10.151240 -3.540003 2.089740
12.363816 -4.317638 -0.686334
8.450680 -2.955247 2.066850
12.380783 -4.335688 -0.228976
5.713297 -2.003567 1.622278
3.909746 -1.373005 -1.110334
0.000000 -0.000000 0.000000
4.494144 -1.582638 -1.100011
0.000000 -0.000000 0.000000
5.268561 -1.860523 -1.086085
12.217107 -4.320306 1.133722
6.290079 -2.227434 -1.056871
12.207890 -4.329036 1.590395
2.884544 -1.024305 -0.375845
12.203936 -4.339627 2.051482
3.964108 -1.411556 -0.368146
10.137374 -3.614741 2.092030
12.363467 -4.414594 -0.688008
8.420668 -3.010891 2.064601
12.378452 -4.432128 -0.229499
7.208523 -2.584574 2.051917
3.900066 -1.400267 -1.110334
0.000000 -0.000000 0.000000
4.484820 -1.614634 -1.100461
0.000000 -0.000000 0.000000
5.255444 -1.897259 -1.086085
12.224122 -4.419039 1.137208
6.250229 -2.262551 -1.052804
11.257303 -4.080643 1.470232
2.853066 -1.035612 -0.372676
12.225326 -4.443615 2.060242
0.000000 -0.000000 -0.000000
10.244700 -3.733829 2.119506
12.399890 -4.525449 -0.691777
8.415916 -3.075625 2.068650
12.381011 -4.530807 -0.230127
7.181234 -2.631512 2.049329
3.893822 -1.428791 -1.111369
0.000000 -0.000000 0.000000
4.453320 -1.638503 -1.095512
0.000000 -0.000000 0.000000
5.227336 -1.928466 -1.083032
12.222877 -4.515317 1.139997
2.575231 -0.952607 -0.434888
11.168973 -4.137070 1.462432
2.834599 -1.051363 -0.371214
12.244004 -4.547424 2.068689
4.130757 -1.536215 -0.385577
10.273578 -3.825813 2.130955
7.062613 -2.633580 -0.395032
8.388762 -3.132258 2.067300
12.418382 -4.643043 -0.231419
7.162688 -2.681582 2.049329
3.876517 -1.453227 -1.109298
0.000000 -0.000000 0.000000
4.432671 -1.666076 -1.093262
12.535245 -4.717698 0.701930
5.233996 -1.972414 -1.087230
12.265746 -4.628342 1.146970
2.524200 -0.953721 -0.427379
11.063856 -4.185718 1.452439
2.773402 -1.050610 -0.364146
11.070757 -4.199238 1.875336
0.000000 -0.000000 -0.000000
10.191802 -3.875892 2.119506
7.075962 -2.694444 -0.396811
8.370558 -3.191541 2.068200
12.440203 -4.749363 -0.232431
7.172888 -2.741974 2.057611
3.877231 -1.484061 -1.112404
12.411646 -4.756852 0.232012
4.442912 -1.704974 -1.098661
12.407341 -4.767469 0.696592
5.211113 -2.004925 -1.085322
12.285604 -4.732846 1.151850
2.510193 -0.968257 -0.426127
10.962518 -4.234000 1.442933
2.717955 -1.051089 -0.357808
12.266541 -4.749798 2.083394
0.000000 -0.000000 -0.000000
10.172160 -3.948904 2.121033
7.062803 -2.745332 -0.397125
8.335645 -3.244225 2.065051
12.444430 -4.849535 -0.233129
7.157413 -2.792763 2.058647
3.852513 -1.505131 -1.108263
12.408328 -4.854029 0.232571
4.421961 -1.732057 -1.096411
12.394553 -4.861116 0.697743
5.167884 -2.029435 -1.079216
12.289636 -4.832346 1.155337
2.499750 -0.984174 -0.425502
10.907049 -4.299700 1.439521
2.701366 -1.066275 -0.356590
12.282868 -4.854454 2.091842
0.000000 -0.000000 -0.000000
10.151754 -4.022438 2.122559
0.000000 -0.000000 -0.000000
8.347257 -3.315872 2.073599
12.384311 -4.925812 -0.232641
7.134168 -2.841194 2.057611
3.834734 -1.529128 -1.106193
12.318424 -4.918291 0.231524
4.424237 -1.768673 -1.100011
12.326938 -4.934167 0.695859
5.159057 -2.067655 -1.080361
12.288884 -4.931382 1.158474
2.457992 -0.987608 -0.419557
12.316933 -4.955121 1.630124
2.697539 -1.086592 -0.357077
12.285319 -4.954863 2.098099
0.000000 -0.000000 -0.000000
10.068822 -4.071135 2.111111
0.000000 -0.000000 -0.000000
8.314875 -3.370405 2.071349
12.351473 -5.012902 -0.232675
7.107000 -2.888021 2.055541
3.820386 -1.554406 -1.105157
12.320826 -5.019258 0.232222
4.395542 -1.792893 -1.095962
12.331020 -5.035962 0.698057
5.146314 -2.104364 -1.080742
12.302097 -5.036681 1.163006
2.419965 -0.992007 -0.414238
12.313259 -5.053802 1.634268
2.678870 -1.100870 -0.355615
12.288791 -5.056294 2.104669
0.000000 -0.000000 -0.000000
10.032895 -4.138334 2.109584
0.000000 -0.000000 -0.000000
8.309151 -3.435818 2.075848
7.591834 -3.143088 -0.143424
7.100942 -2.943485 2.059682
3.820147 -1.585482 -1.108263
12.326110 -5.122033 0.232990
4.366725 -1.816798 -1.091912
12.330592 -5.136518 0.700046
5.135121 -2.141752 -1.081505
12.325468 -5.147010 1.168584
2.381999 -0.995923 -0.408920
12.317962 -5.156505 1.639630
2.669289 -1.118778 -0.355371
12.327873 -5.173302 2.117497
0.000000 -0.000000 -0.000000
10.007379 -4.209798 2.110347
0.000000 -0.000000 -0.000000
8.277780 -3.490714 2.074049
7.475753 -3.156344 -0.141644
7.083778 -2.994491 2.060717
3.808985 -1.612113 -1.108263
12.626993 -5.350740 0.239377
4.353935 -1.847239 -1.091912
12.695178 -5.392706 0.722864
5.101977 -2.169866 -1.077689
12.340562 -5.254788 1.173465
2.353182 -1.003232 -0.405165
12.340086 -5.267312 1.647430
2.655937 -1.135045 -0.354640
12.345940 -5.282552 2.126883
0.000000 -0.000000 -0.000000
10.013831 -4.295037 2.117980
0.000000 -0.000000 -0.000000
8.256789 -3.549957 2.074949
7.345167 -3.161809 -0.139584
7.073345 -3.048459 2.063823
3.788769 -1.634838 -1.105675
12.666430 -5.472070 0.240843
4.349876 -1.881458 -1.094162
12.657220 -5.481203 0.722864
5.075897 -2.200745 -1.075399
12.351095 -5.361440 1.177997
2.351556 -1.021998 -0.406104
12.363081 -5.379470 1.655473
2.664328 -1.160695 -0.356833
12.352216 -5.387567 2.134392
0.000000 -0.000000 -0.000000
10.037568 -4.388435 2.129428
0.000000 -0.000000 -0.000000
8.244299 -3.612989 2.078098
12.384314 -5.433756 -0.236061
7.053659 -3.098543 2.064341
3.770479 -1.657480 -1.103604
12.672816 -5.577493 0.241681
4.342319 -1.913380 -1.095512
0.000000 -0.000000 0.000000
5.071575 -2.240004 -1.077689
12.372625 -5.471171 1.183575
2.349964 -1.040379 -0.407042
12.384252 -5.489238 1.663273
2.665438 -1.182829 -0.358052
12.365804 -5.493977 2.143152
0.000000 -0.000000 -0.000000
9.950074 -4.431099 2.117217
0.000000 -0.000000 -0.000000
8.235531 -3.676171 2.082147
10.105112 -4.516003 -0.193198
7.023588 -3.142538 2.061753
3.758816 -1.683762 -1.103604
10.343689 -4.638877 0.197875
4.330633 -1.944447 -1.095962
0.000000 -0.000000 0.000000
5.050442 -2.272938 -1.076544
12.388623 -5.581968 1.188804
2.321036 -1.047013 -0.403288
12.392666 -5.596805 1.669610
2.671585 -1.207951 -0.360002
12.386534 -5.607055 2.153477
0.000000 -0.000000 -0.000000
9.922473 -4.502077 2.117980
0.000000 -0.000000 -0.000000
8.225631 -3.740837 2.086196
10.073339 -4.586439 -0.193198
7.001478 -3.191495 2.061753
3.757515 -1.714775 -1.106710
10.229229 -4.673525 0.196305
4.313430 -1.972964 -1.095062
10.971795 -5.024221 0.632428
5.039856 -2.310486 -1.077689
10.913559 -5.008935 1.050575
2.301140 -1.057342 -0.401098
10.901746 -5.014891 1.473400
2.646913 -1.218983 -0.357808
10.879963 -5.016235 1.897550
0.000000 -0.000000 -0.000000
9.908897 -4.578881 2.121796
0.000000 -0.000000 -0.000000
8.197816 -3.796770 2.085746
10.248245 -4.751779 -0.197177
6.975787 -3.238099 2.060717
0.000000 -0.000000 -0.000000
10.153253 -4.723690 0.195467
4.292659 -1.999363 -1.093262
10.801137 -5.036438 0.624577
2.727159 -1.273072 -0.585020
10.786713 -5.041033 1.041685
2.302742 -1.077366 -0.402662
10.768042 -5.043618 1.459995
0.000000 -0.000000 -0.000000
10.730681 -5.037399 1.877526
0.000000 -0.000000 -0.000000
9.869988 -4.643741 2.120270
0.000000 -0.000000 -0.000000
8.159108 -3.847378 2.082597
10.104935 -4.770244 -0.195048
6.967271 -3.292716 2.064858
2.718935 -1.286396 -0.805963
10.702345 -5.069263 0.206706
2.716919 -1.288345 -0.694199
10.665036 -5.062991 0.618716
2.714743 -1.290216 -0.584257
10.638220 -5.061641 1.030704
2.307708 -1.099237 -0.404852
10.610978 -5.060040 1.443421
0.000000 -0.000000 -0.000000
10.563558 -5.048747 1.854374
0.000000 -0.000000 -0.000000
9.865787 -4.725835 2.126375
7.169350 -3.438055 -0.416699
8.172519 -3.923510 2.092945
10.084055 -4.846627 -0.195292
6.947614 -3.342914 2.065894
2.699445 -1.300316 -0.802857
10.533405 -5.079579 0.204123
2.706104 -1.306434 -0.693749
10.534123 -5.091260 0.613168
2.700368 -1.306572 -0.583112
10.475313 -5.074118 1.018328
2.303532 -1.117045 -0.405478
10.470033 -5.082846 1.429040
0.000000 -0.000000 -0.000000
10.437464 -5.078294 1.838418
7.132577 -3.474169 -0.694108
9.825496 -4.791153 2.124849
7.152353 -3.491527 -0.417118
8.132673 -3.974479 2.089795
10.085899 -4.934484 -0.195991
6.910227 -3.384538 2.061753
2.702443 -1.325083 -0.806480
10.562338 -5.184655 0.205380
2.695183 -1.324405 -0.693299
10.609521 -5.219166 0.619658
2.703538 -1.331405 -0.585784
10.362933 -5.108957 1.010832
2.293944 -1.132150 -0.405165
10.343725 -5.110573 1.416609
2.709934 -1.340363 -0.371214
10.263930 -5.082157 1.814014
7.138689 -3.538533 -0.697072
9.813203 -4.869515 2.129428
7.129824 -3.541796 -0.417222
8.307421 -4.131240 2.141984
10.123191 -5.039656 -0.197387
6.893627 -3.435581 2.063823
2.700159 -1.347132 -0.808551
10.644417 -5.316320 0.207684
2.691217 -1.345569 -0.694649
0.000000 -0.000000 0.000000
2.710092 -1.357927 -0.589218
0.000000 -0.000000 0.000000
2.307268 -1.158575 -0.408920
10.178773 -5.116677 1.398816
2.642113 -1.329567 -0.363171
10.069874 -5.072811 1.785856
0.000000 -0.000000 -0.000000
9.744348 -4.919356 2.121796
8.096334 -4.091748 -0.475420
8.066601 -4.081086 2.087096
10.061448 -5.095773 -0.196863
6.871502 -3.483897 2.064341
2.701143 -1.370961 -0.811657
10.525447 -5.348023 0.206078
2.697480 -1.372100 -0.698698
0.000000 -0.000000 0.000000
2.055189 -1.047680 -0.448401
0.000000 -0.000000 0.000000
2.318499 -1.184490 -0.412361
10.061562 -5.145923 1.387604
2.615097 -1.338933 -0.360733
10.004274 -5.127779 1.780537
6.684661 -3.430013 -0.657329
9.796921 -5.032434 2.140877
9.990989 -5.137702 -0.588780
8.015163 -4.126145 2.081247
6.642643 -3.423295 -0.130439
6.851893 -3.534964 2.065894
2.686236 -1.387360 -0.810104
10.434092 -5.394737 0.205031
2.684252 -1.389342 -0.697798
0.000000 -0.000000 0.000000
1.991965 -1.033253 -0.436189
0.000000 -0.000000 0.000000
2.308316 -1.199938 -0.412048
9.912238 -5.158267 1.372005
2.596765 -1.352798 -0.359515
9.873197 -5.149041 1.763642
6.644354 -3.468879 -0.655760
9.757624 -5.099740 2.140114
6.646900 -3.477686 -0.393148
7.987524 -4.183601 2.081697
6.543897 -3.431162 -0.128973
6.835287 -3.587798 2.068482
3.642589 -1.914024 -1.102569
0.000000 -0.000000 0.000000
3.219276 -1.695133 -0.839967
0.000000 -0.000000 0.000000
1.970766 -1.039891 -0.433136
0.000000 -0.000000 0.000000
2.296363 -1.214227 -0.411423
9.805749 -5.190302 1.362256
2.589011 -1.371823 -0.359758
9.755047 -5.174232 1.748937
6.827698 -3.625289 -0.676329
9.690748 -5.150832 2.133245
6.596165 -3.509643 -0.391578
8.001353 -4.261731 2.092945
6.490014 -3.460343 -0.128380
6.784787 -3.621265 2.060717
3.627603 -1.938180 -1.102051
0.000000 -0.000000 0.000000
3.209231 -1.718206 -0.840417
0.000000 -0.000000 0.000000
1.947980 -1.045100 -0.429702
9.957633 -5.347840 0.988869
2.294897 -1.233770 -0.412674
9.650868 -5.193809 1.345681
2.581240 -1.390581 -0.360002
9.611347 -5.183227 1.729539
3.097962 -1.672399 -0.308008
9.615283 -5.196050 2.124467
6.670188 -3.608250 -0.397439
7.968355 -4.314935 2.092045
2.772400 -1.502825 -0.055045
6.766452 -3.671638 2.062788
3.213525 -1.745528 -0.979889
2.733563 -1.486347 0.054312
3.192174 -1.737495 -0.839067
9.888067 -5.387582 0.590140
1.932111 -1.053804 -0.427794
9.875062 -5.391537 0.984337
2.282871 -1.247667 -0.412048
9.536465 -5.217344 1.334713
2.578556 -1.412157 -0.360977
9.506099 -5.211380 1.717025
3.093346 -1.697550 -0.308706
9.484593 -5.210225 2.103478
7.647965 -4.205591 -0.457416
7.952076 -4.377284 2.095644
2.756720 -1.519007 -0.054940
6.747746 -3.721931 2.064858
3.461858 -1.911442 -1.059605
2.709250 -1.497418 0.054033
3.203992 -1.772668 -0.845366
9.438352 -5.227256 0.565438
1.900762 -1.053772 -0.422451
9.421295 -5.228424 0.942677
2.281122 -1.267213 -0.413300
9.399646 -5.227009 1.320576
2.586104 -1.439555 -0.363414
9.376765 -5.224870 1.700130
3.107669 -1.733394 -0.311320
9.388453 -5.241990 2.090122
7.552540 -4.221188 -0.453439
7.926812 -4.434856 2.096994
2.720012 -1.523319 -0.054417
6.735407 -3.775919 2.068999
2.402394 -1.348161 -0.738152
2.709315 -1.521951 0.054242
2.367853 -1.331496 -0.627164
9.328905 -5.251206 0.561041
1.867772 -1.052436 -0.416727
9.301584 -5.246522 0.934310
2.275730 -1.284926 -0.413926
9.278506 -5.244183 1.308633
2.596788 -1.469192 -0.366339
9.252601 -5.240200 1.684173
3.092083 -1.752980 -0.310972
9.251033 -5.249980 2.067606
2.917499 -1.657370 -0.175849
7.877098 -4.479362 2.092045
2.697162 -1.535316 -0.054172
6.708903 -3.822812 2.068999
2.357684 -1.344799 -0.727282
2.660419 -1.519015 0.053474
2.373727 -1.356697 -0.631213
9.203605 -5.265622 0.555703
1.856972 -1.063498 -0.415964
9.167935 -5.255839 0.924548
2.258138 -1.295866 -0.412361
9.159046 -5.261369 1.296934
2.595072 -1.492233 -0.367558
9.125055 -5.252439 1.667591
3.046970 -1.755625 -0.307660
9.152932 -5.279124 2.053868
2.743268 -1.583826 -0.166010
7.857445 -4.541070 2.095194
2.695033 -1.559115 -0.054347
6.678708 -3.867619 2.067964
2.338211 -1.355413 -0.724176
2.646290 -1.535544 0.053404
2.352402 -1.366384 -0.628063
9.092375 -5.286579 0.551202
1.844412 -1.073473 -0.414819
9.051828 -5.273579 0.916530
2.228559 -1.299657 -0.408607
9.053518 -5.285151 1.287184
2.603444 -1.521330 -0.370239
9.026780 -5.280110 1.656328
2.977901 -1.743633 -0.301907
9.014228 -5.283331 2.030971
2.732144 -1.602939 -0.166010
7.823871 -4.594828 2.094744
2.696150 -1.584986 -0.054591
6.661534 -3.920030 2.071070
2.342007 -1.379548 -0.728317
2.638951 -1.556012 0.053474
2.339449 -1.380792 -0.627164
9.058686 -5.351958 0.551412
1.835183 -1.085324 -0.414437
9.047367 -5.355928 0.919842
2.224530 -1.318205 -0.409545
8.924204 -5.293539 1.274022
2.596174 -1.541495 -0.370727
8.909888 -5.295564 1.641623
2.881754 -1.714464 -0.293366
8.906279 -5.303942 2.014943
2.714025 -1.617883 -0.165591
7.815031 -4.663316 2.101043
2.693603 -1.608897 -0.054766
6.625715 -3.961483 2.068482
2.355526 -1.409754 -0.735564
2.665772 -1.596992 0.054242
2.343138 -1.405083 -0.630763
9.154761 -5.495096 0.559576
1.824220 -1.096048 -0.413674
9.207960 -5.537829 0.940062
2.213624 -1.332611 -0.409233
8.822626 -5.316440 1.264760
2.571818 -1.551267 -0.368777
8.798558 -5.312278 1.627857
2.861284 -1.729231 -0.292495
8.798804 -5.322778 1.998915
2.718147 -1.645925 -0.166533
7.774286 -4.712159 2.098793
2.685848 -1.629532 -0.054835
6.608132 -4.013119 2.071588
2.349053 -1.427966 -0.736599
2.678615 -1.629884 0.054731
2.351703 -1.432354 -0.635712
9.079143 -5.535206 0.557273
1.816620 -1.108598 -0.413674
9.050545 -5.528474 0.927860
2.207755 -1.349901 -0.409858
8.704494 -5.327397 1.253061
2.564448 -1.571034 -0.369264
8.677527 -5.321177 1.612214
2.808542 -1.723901 -0.288311
8.694989 -5.342201 1.983650
2.757773 -1.696013 -0.169673
7.751573 -4.771772 2.101493
2.696682 -1.661647 -0.055289
6.591819 -4.065679 2.075211
2.398330 -1.480661 -0.755234
2.687728 -1.660927 0.055150
2.408065 -1.489538 -0.653708
8.986428 -5.564021 0.553924
1.813941 -1.124198 -0.414819
8.947880 -5.550826 0.921236
2.195040 -1.363005 -0.409233
8.606865 -5.349554 1.244286
2.563670 -1.594968 -0.370727
8.573564 -5.339104 1.599699
2.777991 -1.731629 -0.286394
8.584666 -5.356290 1.966859
2.751098 -1.718159 -0.169987
7.713535 -4.821999 2.100143
2.703810 -1.691866 -0.055673
6.560359 -4.108976 2.074176
2.558291 -1.603880 -0.809068
8.895870 -5.582465 0.183320
2.567709 -1.612869 -0.700048
8.903895 -5.598201 0.551202
1.799501 -1.132494 -0.413292
8.868941 -5.586894 0.917053
2.175566 -1.371784 -0.407355
8.499275 -5.364264 1.234049
2.550935 -1.611544 -0.370483
8.464761 -5.352686 1.586245
2.747469 -1.739018 -0.284476
8.461297 -5.360709 1.947015
2.734127 -1.733875 -0.169673
7.694916 -4.884461 2.104192
2.724151 -1.730842 -0.056336
6.556327 -4.169656 2.081940
2.556951 -1.627703 -0.812174
8.799834 -5.607125 0.182133
2.551600 -1.627388 -0.698698
8.814586 -5.627210 0.548062
1.803231 -1.152272 -0.415964
8.766434 -5.607109 0.910429
2.161066 -1.383555 -0.406417
8.385209 -5.373462 1.222837
2.534752 -1.625876 -0.369752
8.366155 -5.371427 1.574669
2.716978 -1.746069 -0.282559
8.364698 -5.380677 1.933277
2.706996 -1.742952 -0.168731
7.649594 -4.930004 2.101043
2.745761 -1.771261 -0.057034
6.618310 -4.273440 2.110928
2.548914 -1.647389 -0.813209
8.737463 -5.652451 0.181645
2.543592 -1.647059 -0.699598
8.708542 -5.644392 0.543875
1.783715 -1.157197 -0.413292
8.677440 -5.634859 0.905200
2.136570 -1.388731 -0.403601
8.281408 -5.387840 1.213087
2.521819 -1.642229 -0.369508
8.261076 -5.384750 1.561842
2.703207 -1.763670 -0.282385
