ply
format ascii 1.0
element vertex 1252
property float x
property float y
property float z
property uchar red
property uchar green
property uchar blue
end_header
11.5473 0.447135 1.83028 255 255 255
11.5931 0.446375 -1.01502 255 255 255
10.4231 0.39905 2.02754 255 255 255
11.5877 0.441104 -0.607725 255 255 255
8.765 0.331738 2.02501 255 255 255
11.584 0.435903 -0.202343 255 255 255
7.50386 0.280728 2.01206 255 255 255
4.26644 0.15868 -1.14398 255 255 255
4.91725 0.180683 -1.136 255 255 255
5.75051 0.208726 -1.11852 255 255 255
11.5623 0.417087 1.01223 255 255 255
6.94097 0.248828 -1.10005 255 255 255
11.5598 0.411821 1.42026 255 255 255
8.81226 0.311966 -1.08269 255 255 255
11.5567 0.406535 1.83153 255 255 255
11.6006 0.405481 -1.01554 255 255 255
10.4284 0.362175 2.0283 255 255 255
11.5992 0.400238 -0.608248 255 255 255
8.74665 0.299852 2.02051 255 255 255
11.5935 0.394852 -0.202483 255 255 255
7.50868 0.254049 2.01309 255 255 255
4.26312 0.143285 -1.14295 255 255 255
12.0814 0.403355 0.211 255 255 255
4.90618 0.162701 -1.1333 255 255 255
12.0569 0.397138 0.632218 255 255 255
5.75515 0.188278 -1.11929 255 255 255
11.5717 0.375974 1.01292 255 255 255
6.97143 0.224947 -1.10474 255 255 255
11.5652 0.370585 1.42075 255 255 255
11.5561 0.365121 1.83122 255 255 255
11.598 0.363848 -1.01519 255 255 255
10.4375 0.325105 2.02983 255 255 255
11.6125 0.359105 -0.608877 255 255 255
8.74378 0.268435 2.01961 255 255 255
11.5869 0.353125 -0.202343 255 255 255
7.50181 0.226949 2.01102 255 255 255
4.24816 0.127567 -1.1388 255 255 255
4.91842 0.145546 -1.136 255 255 255
11.8905 0.349268 0.623426 255 255 255
5.73616 0.167239 -1.11547 255 255 255
11.5729 0.334885 1.01292 255 255 255
6.93664 0.19921 -1.09911 255 255 255
11.5743 0.329871 1.42173 255 255 255
8.79838 0.248835 -1.08074 255 255 255
11.5573 0.324339 1.83122 255 255 255
11.6032 0.323092 -1.01554 255 255 255
10.4425 0.288493 2.03059 255 255 255
11.6117 0.31826 -0.608772 255 255 255
8.75635 0.238087 2.02231 255 255 255
11.6 0.312874 -0.202553 255 255 255
7.50642 0.200823 2.01206 255 255 255
4.26017 0.113044 -1.14191 255 255 255
12.092 0.318223 0.211139 255 255 255
4.90331 0.127969 -1.1324 255 255 255
5.75241 0.147618 -1.11852 255 255 255
11.576 0.294536 1.0131 255 255 255
6.94124 0.175095 -1.09973 255 255 255
11.5715 0.289368 1.42124 255 255 255
8.81507 0.218515 -1.08269 255 255 255
11.5742 0.284383 1.83372 255 255 255
11.6042 0.282588 -1.01554 255 255 255
10.4415 0.251993 2.03021 255 255 255
11.6187 0.277868 -0.609086 255 255 255
8.77077 0.207843 2.02546 255 255 255
11.605 0.272474 -0.202622 255 255 255
7.49163 0.174261 2.00792 255 255 255
4.2644 0.098262 -1.14295 255 255 255
11.8771 0.271149 0.207369 255 255 255
4.89983 0.110818 -1.1315 255 255 255
11.8727 0.265996 0.622379 255 255 255
5.74896 0.127576 -1.11776 255 255 255
11.5849 0.254618 1.0138 255 255 255
6.92798 0.150791 -1.09754 255 255 255
11.5803 0.249587 1.42221 255 255 255
8.79196 0.187619 -1.07976 255 255 255
11.6151 0.242921 -1.01641 255 255 255
11.6116 0.237907 -0.608667 255 255 255
8.74999 0.177414 2.02051 255 255 255
11.6179 0.233091 -0.202832 255 255 255
4.27243 0.0839 -1.14502 255 255 255
11.862 0.230415 0.20709 255 255 255
4.89238 0.093992 -1.1297 255 255 255
11.8815 0.225739 0.622798 255 255 255
5.73758 0.107788 -1.11547 255 255 255
11.5937 0.215336 1.01449 255 255 255
6.93438 0.12732 -1.09848 255 255 255
11.5871 0.210282 1.42295 255 255 255
8.77667 0.157411 -1.07781 255 255 255
11.5897 0.205397 1.83591 255 255 255
11.6278 0.203598 -1.01746 255 255 255
10.4371 0.180528 2.02906 255 255 255
11.6263 0.198625 -0.6094 255 255 255
8.75834 0.147765 2.02231 255 255 255
11.6226 0.193616 -0.202902 255 255 255
4.25144 0.069014 -1.13932 255 255 255
11.8367 0.189562 0.206636 255 255 255
4.91216 0.077595 -1.1342 255 255 255
11.8503 0.184608 0.621123 255 255 255
5.74969 0.088316 -1.11776 255 255 255
11.5984 0.175621 1.01484 255 255 255
6.9407 0.103581 -1.09942 255 255 255
11.5957 0.170519 1.42392 255 255 255
8.76922 0.127042 -1.07684 255 255 255
11.5745 0.165157 1.83341 255 255 255
11.6404 0.163557 -1.0185 255 255 255
11.627 0.158294 -0.6094 255 255 255
8.7588 0.117335 2.02231 255 255 255
11.6192 0.153118 -0.202832 255 255 255
7.65528 0.099211 2.0514 255 255 255
4.24586 0.054099 -1.13777 255 255 255
11.8353 0.148218 0.206602 255 255 255
4.9124 0.060448 -1.1342 255 255 255
11.8549 0.14329 0.621332 255 255 255
5.71856 0.067872 -1.11165 255 255 255
11.6029 0.135181 1.01519 255 255 255
6.94892 0.079443 -1.10067 255 255 255
11.6121 0.13022 1.42587 255 255 255
8.75373 0.096256 -1.07489 255 255 255
11.579 0.124796 1.83404 255 255 255
11.6394 0.117829 -0.610028 255 255 255
8.77085 0.086876 2.02501 255 255 255
11.6157 0.11252 -0.202762 255 255 255
7.6324 0.072269 2.04519 255 255 255
4.25762 0.039385 -1.14087 255 255 255
11.8357 0.106969 0.206602 255 255 255
4.90479 0.043285 -1.1324 255 255 255
11.8633 0.10217 0.621751 255 255 255
5.73839 0.0482 -1.11547 255 255 255
11.6073 0.095027 1.01554 255 255 255
6.93138 0.055272 -1.09786 255 255 255
11.5727 0.089821 1.421 255 255 255
8.79768 0.066411 -1.08025 255 255 255
10.9295 0.080178 1.7311 255 255 255
11.6373 0.082895 -1.01815 255 255 255
10.458 0.07227 2.03288 255 255 255
11.6378 0.077947 -0.609923 255 255 255
8.7711 0.056881 2.02501 255 255 255
11.636 0.072985 -0.203111 255 255 255
7.6442 0.046321 2.04829 255 255 255
4.25386 0.024872 -1.13984 255 255 255
11.81 0.06654 0.206148 255 255 255
4.89322 0.026528 -1.1297 255 255 255
11.8396 0.06167 0.620495 255 255 255
5.73852 0.02867 -1.11547 255 255 255
11.6115 0.055542 1.01589 255 255 255
6.93152 0.031681 -1.09786 255 255 255
10.9239 0.047605 1.34129 255 255 255
8.78991 0.036436 -1.07928 255 255 255
10.8763 0.042771 1.72266 255 255 255
11.6494 0.043333 -1.0192 255 255 255
10.47 0.036719 2.03517 255 255 255
11.636 0.038333 -0.609819 255 255 255
8.78293 0.027066 2.02771 255 255 255
11.6522 0.033429 -0.20339 255 255 255
7.63272 0.020274 2.04519 255 255 255
4.2462 0.010375 -1.13777 255 255 255
11.8202 0.026239 0.206322 255 255 255
4.89328 0.009768 -1.1297 255 255 255
11.8557 0.021015 0.621332 255 255 255
5.71895 0.008859 -1.11165 255 255 255
11.6216 0.015403 1.01676 255 255 255
6.91777 0.007622 -1.09567 255 255 255
10.8525 0.00953 1.33252 255 255 255
8.77014 0.00574 -1.07684 255 255 255
10.7974 0.004652 1.71014 255 255 255
11.6575 0.002416 -1.0199 255 255 255
10.4641 -0.000171 2.03402 255 255 255
11.65 -0.002796 -0.610551 255 255 255
8.77128 -0.004066 2.02501 255 255 255
11.6402 -0.007999 -0.203181 255 255 255
7.62308 -0.006943 2.0426 255 255 255
4.24814 -0.004819 -1.13829 255 255 255
11.8242 -0.016058 0.206392 255 255 255
4.89718 -0.007746 -1.1306 255 255 255
11.8557 -0.021403 0.621332 255 255 255
5.71699 -0.011599 -1.11127 255 255 255
11.6276 -0.026192 1.01728 255 255 255
6.93355 -0.017169 -1.09817 255 255 255
10.7889 -0.029128 1.32472 255 255 255
11.6574 -0.039293 -1.0199 255 255 255
10.4935 -0.037717 2.03975 255 255 255
11.6579 -0.044509 -0.61097 255 255 255
8.779 -0.035481 2.02681 255 255 255
11.6401 -0.049647 -0.203181 255 255 255
7.60369 -0.034131 2.03742 255 255 255
4.22105 -0.019891 -1.13104 255 255 255
11.8201 -0.058215 0.206322 255 255 255
4.90881 -0.025221 -1.1333 255 255 255
5.72084 -0.031827 -1.11204 255 255 255
11.6274 -0.06716 1.01728 255 255 255
6.91764 -0.041428 -1.09567 255 255 255
10.761 -0.066734 1.32131 255 255 255
8.77393 -0.056277 -1.07732 255 255 255
10.6569 -0.070622 1.68793 255 255 255
11.6572 -0.079731 -1.0199 255 255 255
10.509 -0.074113 2.0428 255 255 255
11.6637 -0.084737 -0.611284 255 255 255
8.78662 -0.065704 2.02861 255 255 255
11.6439 -0.089547 -0.203251 255 255 255
7.58808 -0.05997 2.03328 255 255 255
4.2538 -0.034524 -1.13984 255 255 255
11.8358 -0.098577 0.206602 255 255 255
4.89701 -0.041827 -1.1306 255 255 255
11.8792 -0.103993 0.622589 255 255 255
5.72855 -0.051367 -1.11356 255 255 255
11.6311 -0.106769 1.01763 255 255 255
6.90364 -0.064841 -1.09348 255 255 255
11.6321 -0.111727 1.42831 255 255 255
8.76575 -0.08606 -1.07635 255 255 255
11.6608 -0.119445 -1.02024 255 255 255
11.6653 -0.124454 -0.611389 255 255 255
8.79025 -0.095651 2.02951 255 255 255
11.6635 -0.129397 -0.2036 255 255 255
7.56078 -0.085489 2.02604 255 255 255
4.24206 -0.048867 -1.13673 255 255 255
11.8274 -0.138893 0.206462 255 255 255
4.88125 -0.058414 -1.127 255 255 255
11.8828 -0.144859 0.622798 255 255 255
5.72245 -0.07104 -1.11242 255 255 255
11.6426 -0.147138 1.01868 255 255 255
6.89349 -0.088661 -1.09191 255 255 255
11.6356 -0.152255 1.4288 255 255 255
11.6319 -0.15741 1.84248 255 255 255
11.6723 -0.160567 -1.02129 255 255 255
11.6588 -0.165597 -0.611075 255 255 255
8.78596 -0.126757 2.02861 255 255 255
11.683 -0.171166 -0.203949 255 255 255
7.54111 -0.112171 2.02086 255 255 255
4.24573 -0.064103 -1.13777 255 255 255
11.8268 -0.181209 0.206462 255 255 255
4.87321 -0.075757 -1.12521 255 255 255
11.8702 -0.187185 0.62217 255 255 255
5.72608 -0.091577 -1.11318 255 255 255
11.6539 -0.188988 1.01972 255 255 255
6.91881 -0.113747 -1.09598 255 255 255
11.6429 -0.194018 1.42977 255 255 255
8.74507 -0.147684 -1.07391 255 255 255
11.6431 -0.19923 1.84436 255 255 255
11.6936 -0.202708 -1.02321 255 255 255
10.4881 -0.184157 2.03899 255 255 255
11.6641 -0.207417 -0.611389 255 255 255
8.79324 -0.158332 2.03041 255 255 255
11.6823 -0.212966 -0.203949 255 255 255
7.55612 -0.139437 2.025 255 255 255
4.23388 -0.079077 -1.13466 255 255 255
4.89239 -0.093458 -1.1297 255 255 255
11.8855 -0.229574 0.623007 255 255 255
5.71591 -0.111622 -1.11127 255 255 255
11.6532 -0.230048 1.01972 255 255 255
6.88282 -0.137339 -1.09035 255 255 255
11.6501 -0.234945 1.43075 255 255 255
8.72664 -0.177845 -1.07172 255 255 255
11.6444 -0.239784 1.84467 255 255 255
11.6808 -0.243022 -1.02216 255 255 255
10.4991 -0.22067 2.04128 255 255 255
11.6813 -0.248004 -0.612331 255 255 255
8.7868 -0.18842 2.02906 255 255 255
11.6735 -0.252805 -0.203809 255 255 255
7.54401 -0.164981 2.02189 255 255 255
4.23359 -0.093486 -1.13466 255 255 255
11.8652 -0.264533 0.20716 255 255 255
4.89205 -0.110108 -1.1297 255 255 255
5.71549 -0.131075 -1.11127 255 255 255
11.6484 -0.269614 1.01937 255 255 255
6.90206 -0.161225 -1.09348 255 255 255
11.6651 -0.274968 1.4327 255 255 255
8.73194 -0.207686 -1.07245 255 255 255
11.6494 -0.279555 1.84561 255 255 255
11.6939 -0.283112 -1.02338 255 255 255
11.6884 -0.287955 -0.612749 255 255 255
11.6846 -0.292834 -0.204019 255 255 255
7.54147 -0.190607 2.02138 255 255 255
4.22745 -0.107746 -1.13311 255 255 255
4.88385 -0.126555 -1.12791 255 255 255
11.9276 -0.311618 0.62531 255 255 255
5.70716 -0.15032 -1.10975 255 255 255
11.6633 -0.30968 1.02077 255 255 255
6.87777 -0.18408 -1.08972 255 255 255
11.6641 -0.314667 1.4327 255 255 255
8.72324 -0.237187 -1.07148 255 255 255
11.6582 -0.319472 1.84718 255 255 255
11.6849 -0.322689 -1.02269 255 255 255
11.6993 -0.328069 -0.613377 255 255 255
8.80479 -0.248776 2.03356 255 255 255
11.6995 -0.333054 -0.204298 255 255 255
7.5485 -0.216494 2.02345 255 255 255
4.23671 -0.122412 -1.1357 255 255 255
4.8756 -0.142948 -1.1261 255 255 255
11.7547 -0.34714 0.616308 255 255 255
5.71447 -0.169976 -1.11127 255 255 255
11.6801 -0.34991 1.02234 255 255 255
6.87711 -0.207487 -1.08972 255 255 255
11.661 -0.354303 1.43245 255 255 255
8.72238 -0.266874 -1.07148 255 255 255
11.6709 -0.359573 1.84937 255 255 255
11.6937 -0.362765 -1.02356 255 255 255
10.4924 -0.327732 2.04051 255 255 255
11.6922 -0.367696 -0.613063 255 255 255
8.79221 -0.27837 2.03086 255 255 255
11.7003 -0.372934 -0.204333 255 255 255
7.54 -0.241935 2.02138 255 255 255
4.23432 -0.137508 -1.13518 255 255 255
11.686 -0.382049 0.204088 255 255 255
4.87895 -0.160573 -1.127 255 255 255
11.6776 -0.386874 0.612331 255 255 255
5.71578 -0.190611 -1.11165 255 255 255
11.6808 -0.392083 1.02251 255 255 255
6.87236 -0.232183 -1.0891 255 255 255
11.6676 -0.396737 1.43343 255 255 255
8.68168 -0.297103 -1.0666 255 255 255
11.6656 -0.401765 1.84874 255 255 255
11.7082 -0.405791 -1.02495 255 255 255
10.4872 -0.365764 2.03975 255 255 255
11.7027 -0.410713 -0.613691 255 255 255
8.78919 -0.310381 2.03041 255 255 255
11.7168 -0.416327 -0.204647 255 255 255
7.54679 -0.269804 2.02345 255 255 255
4.23574 -0.152357 -1.1357 255 255 255
11.7006 -0.423417 0.204368 255 255 255
4.87836 -0.177603 -1.127 255 255 255
11.6821 -0.427854 0.612645 255 255 255
5.68958 -0.209622 -1.10669 255 255 255
11.6853 -0.433076 1.02303 255 255 255
6.88336 -0.256612 -1.09097 255 255 255
11.682 -0.438057 1.43538 255 255 255
8.32353 -0.313938 -1.02273 255 255 255
11.6562 -0.442184 1.84749 255 255 255
11.7067 -0.446658 -1.02495 255 255 255
10.5055 -0.403121 2.04356 255 255 255
11.7092 -0.451869 -0.61411 255 255 255
8.7861 -0.340983 2.02996 255 255 255
11.7053 -0.456834 -0.204472 255 255 255
7.54387 -0.29607 2.02293 255 255 255
4.23712 -0.167217 -1.13622 255 255 255
11.705 -0.464495 0.204472 255 255 255
4.88161 -0.194786 -1.12791 255 255 255
11.6885 -0.46895 0.613063 255 255 255
5.70843 -0.230272 -1.11051 255 255 255
11.6877 -0.474024 1.02338 255 255 255
6.86268 -0.279833 -1.08784 255 255 255
11.6903 -0.479239 1.4366 255 255 255
8.35015 -0.344135 -1.02614 255 255 255
11.6803 -0.483932 1.85156 255 255 255
11.6971 -0.487188 -1.02425 255 255 255
10.4923 -0.439297 2.04128 255 255 255
11.7095 -0.492823 -0.614215 255 255 255
8.79849 -0.372227 2.03311 255 255 255
11.7196 -0.49837 -0.204752 255 255 255
7.54665 -0.322566 2.02396 255 255 255
4.23265 -0.181841 -1.13518 255 255 255
11.6873 -0.50466 0.204193 255 255 255
4.877 -0.211655 -1.127 255 255 255
11.7048 -0.510531 0.614005 255 255 255
5.70759 -0.250197 -1.11051 255 255 255
11.686 -0.514819 1.02338 255 255 255
6.87745 -0.304485 -1.09035 255 255 255
11.6886 -0.520043 1.4366 255 255 255
8.65033 -0.386758 -1.06319 255 255 255
11.6746 -0.524523 1.85093 255 255 255
11.6993 -0.528195 -1.0246 255 255 255
10.5005 -0.476364 2.04318 255 255 255
11.7197 -0.53424 -0.614843 255 255 255
8.79713 -0.402937 2.03311 255 255 255
11.7338 -0.540011 -0.205031 255 255 255
7.54162 -0.348728 2.02293 255 255 255
4.22041 -0.196076 -1.13207 255 255 255
17.716 -0.826944 0.309571 255 255 255
4.87234 -0.228495 -1.1261 255 255 255
5.69688 -0.269654 -1.1086 255 255 255
11.698 -0.55627 1.0246 255 255 255
6.86648 -0.328019 -1.08878 255 255 255
11.6827 -0.56065 1.43611 255 255 255
8.66082 -0.417524 -1.06465 255 255 255
11.6963 -0.566419 1.85469 255 255 255
11.7134 -0.569805 -1.026 255 255 255
10.4948 -0.512823 2.04242 255 255 255
11.7178 -0.575146 -0.614843 255 255 255
8.78789 -0.433259 2.03131 255 255 255
11.7318 -0.580966 -0.205031 255 255 255
7.56158 -0.376107 2.02862 255 255 255
4.24285 -0.211964 -1.13829 255 255 255
4.87541 -0.245698 -1.127 255 255 255
5.7057 -0.290037 -1.11051 255 255 255
11.7139 -0.598015 1.02617 255 255 255
11.6926 -0.60204 1.43757 255 255 255
8.6613 -0.447856 -1.06489 255 255 255
11.6923 -0.607141 1.85437 255 255 255
11.7113 -0.610688 -1.026 255 255 255
11.7157 -0.616045 -0.614843 255 255 255
8.80578 -0.464959 2.03581 255 255 255
11.7377 -0.622338 -0.20517 255 255 255
7.5525 -0.402089 2.02655 255 255 255
4.21508 -0.225329 -1.13104 255 255 255
4.86869 -0.262294 -1.12566 255 255 255
17.7377 -0.959281 0.930952 255 255 255
5.69683 -0.309277 -1.10898 255 255 255
11.7178 -0.638587 1.0267 255 255 255
6.85024 -0.374743 -1.08659 255 255 255
11.7103 -0.643046 1.44001 255 255 255
8.65576 -0.477113 -1.06441 255 255 255
11.6961 -0.64713 1.85531 255 255 255
11.7271 -0.651282 -1.02757 255 255 255
10.5146 -0.58613 2.047 255 255 255
11.7335 -0.656519 -0.61589 255 255 255
8.78861 -0.493572 2.03221 255 255 255
11.7356 -0.661514 -0.20517 255 255 255
7.54148 -0.426668 2.02396 255 255 255
4.22588 -0.239963 -1.13415 255 255 255
4.87363 -0.278771 -1.127 255 255 255
0 -0 0 255 255 255
5.68989 -0.327828 -1.10784 255 255 255
11.7076 -0.676981 1.026 255 255 255
6.84107 -0.396999 -1.08534 255 255 255
11.716 -0.682337 1.44098 255 255 255
8.65611 -0.50593 -1.06465 255 255 255
11.6998 -0.686259 1.85625 255 255 255
11.7209 -0.689932 -1.02722 255 255 255
7.01803 -0.416026 -0.368445 255 255 255
8.79471 -0.523176 2.03401 255 255 255
11.7453 -0.701142 -0.20538 255 255 255
7.54581 -0.452021 2.02552 255 255 255
4.21927 -0.253627 -1.13259 255 255 255
12.0303 -0.725794 0.210371 255 255 255
4.87656 -0.295273 -1.12791 255 255 255
12.0293 -0.731 0.63159 255 255 255
5.6966 -0.347421 -1.10936 255 255 255
11.7172 -0.71717 1.02704 255 255 255
6.8456 -0.420494 -1.08628 255 255 255
11.7176 -0.722324 1.44147 255 255 255
8.66424 -0.536 -1.06587 255 255 255
11.7072 -0.726814 1.85782 255 255 255
11.7184 -0.730075 -1.02722 255 255 255
10.4947 -0.656133 2.04395 255 255 255
6.87304 -0.43121 -0.360909 255 255 255
8.79673 -0.553829 2.03491 255 255 255
11.7588 -0.742889 -0.205659 255 255 255
7.53648 -0.477787 2.02345 255 255 255
4.22415 -0.268722 -1.13415 255 255 255
12.0177 -0.767146 0.210197 255 255 255
4.858 -0.311173 -1.12385 255 255 255
12.0506 -0.774523 0.632846 255 255 255
5.68359 -0.366545 -1.10707 255 255 255
11.7345 -0.759353 1.02879 255 255 255
6.83818 -0.444003 -1.08534 255 255 255
11.711 -0.762963 1.44098 255 255 255
8.64251 -0.564945 -1.06343 255 255 255
11.7224 -0.768839 1.86063 255 255 255
10.4963 -0.693021 2.04471 255 255 255
6.81569 -0.451503 -0.357978 255 255 255
8.79475 -0.584532 2.03491 255 255 255
11.7681 -0.784729 -0.205869 255 255 255
7.54055 -0.504478 2.025 255 255 255
4.23475 -0.284241 -1.13725 255 255 255
12.0369 -0.810634 0.210581 255 255 255
4.86077 -0.328444 -1.12476 255 255 255
12.0278 -0.815429 0.6318 255 255 255
5.68031 -0.386373 -1.10669 255 255 255
11.7457 -0.801579 1.03001 255 255 255
6.83855 -0.468229 -1.08565 255 255 255
11.7202 -0.805101 1.44245 255 255 255
11.7255 -0.810737 1.86157 255 255 255
10.4996 -0.730694 2.04585 255 255 255
8.779 -0.614898 2.03176 255 255 255
11.7612 -0.82642 -0.205799 255 255 255
7.5464 -0.531956 2.02707 255 255 255
4.20287 -0.297211 -1.12897 255 255 255
12.0379 -0.853979 0.210651 255 255 255
4.86345 -0.34611 -1.12566 255 255 255
12.0328 -0.859027 0.632218 255 255 255
5.68085 -0.406835 -1.10707 255 255 255
11.7328 -0.842885 1.02913 255 255 255
6.79939 -0.489996 -1.07971 255 255 255
11.733 -0.848175 1.44439 255 255 255
8.62046 -0.625106 -1.06124 255 255 255
11.7186 -0.852398 1.86094 255 255 255
8.322 -0.607205 -0.730017 255 255 255
6.6888 -0.491048 -0.351488 255 255 255
8.79035 -0.647307 2.03491 255 255 255
11.7582 -0.868496 -0.205799 255 255 255
7.54445 -0.558953 2.02707 255 255 255
4.20178 -0.312246 -1.12897 255 255 255
12.0627 -0.898994 0.211139 255 255 255
4.8583 -0.363112 -1.12476 255 255 255
12.0815 -0.905562 0.63494 255 255 255
5.6735 -0.426469 -1.10593 255 255 255
11.7318 -0.884369 1.02931 255 255 255
6.8193 -0.515513 -1.08315 255 255 255
11.7458 -0.890454 1.44634 255 255 255
8.6202 -0.655344 -1.06148 255 255 255
11.7215 -0.893621 1.86188 255 255 255
8.32581 -0.636525 -0.730539 255 255 255
6.58749 -0.506446 -0.346255 255 255 255
8.78613 -0.677358 2.03446 255 255 255
11.7711 -0.909998 -0.206078 255 255 255
7.52324 -0.583216 2.02189 255 255 255
4.19877 -0.326395 -1.12845 255 255 255
4.85704 -0.379645 -1.12476 255 255 255
0 -0 0 255 255 255
5.66419 -0.44516 -1.1044 255 255 255
11.7466 -0.9257 1.03088 255 255 255
11.7427 -0.930425 1.44634 255 255 255
8.58824 -0.682319 -1.05783 255 255 255
11.738 -0.935077 1.86501 255 255 255
8.32757 -0.665175 -0.730888 255 255 255
10.5012 -0.841044 2.04776 255 255 255
6.60962 -0.530782 -0.347511 255 255 255
8.79932 -0.708507 2.03806 255 255 255
11.7878 -0.951663 -0.206427 255 255 255
7.52506 -0.609129 2.02293 255 255 255
4.20341 -0.341152 -1.13 255 255 255
12.0443 -0.980107 0.21093 255 255 255
4.83241 -0.394271 -1.11936 255 255 255
5.67243 -0.465237 -1.10631 255 255 255
11.7553 -0.966653 1.03192 255 255 255
6.70341 -0.552667 -1.06532 255 255 255
11.7435 -0.970711 1.44683 255 255 255
11.7525 -0.976493 1.86783 255 255 255
8.32922 -0.693843 -0.731237 255 255 255
10.4865 -0.875798 2.04547 255 255 255
8.78132 -0.737147 2.03446 255 255 255
11.7885 -0.992112 -0.206497 255 255 255
7.5345 -0.63571 2.02604 255 255 255
4.208 -0.355944 -1.13156 255 255 255
4.8291 -0.410551 -1.11891 255 255 255
0 -0 0 255 255 255
5.67081 -0.48454 -1.10631 255 255 255
11.7718 -1.00836 1.03367 255 255 255
6.79596 -0.58359 -1.08034 255 255 255
11.752 -1.0117 1.44829 255 255 255
7.70923 -0.66532 -0.950093 255 255 255
11.759 -1.01734 1.86939 255 255 255
11.7846 -1.02208 -1.03489 255 255 255
6.60586 -0.575759 -0.347511 255 255 255
8.7807 -0.767198 2.03491 255 255 255
11.7891 -1.03258 -0.206567 255 255 255
7.53806 -0.661857 2.02759 255 255 255
4.19137 -0.368909 -1.12742 255 255 255
4.83737 -0.427947 -1.12116 255 255 255
0 -0 0 255 255 255
5.6652 -0.503737 -1.10555 255 255 255
11.7761 -1.04976 1.03436 255 255 255
11.7563 -1.05329 1.44927 255 255 255
8.58471 -0.771074 -1.05831 255 255 255
11.7553 -1.05851 1.86939 255 255 255
7.77655 -0.701992 -0.683127 255 255 255
10.4939 -0.949653 2.04814 255 255 255
6.65152 -0.603434 -0.350023 255 255 255
8.77792 -0.798323 2.03491 255 255 255
11.7853 -1.07449 -0.206567 255 255 255
7.52988 -0.688213 2.02604 255 255 255
4.1804 -0.383021 -1.12483 255 255 255
12.0853 -1.11002 0.211837 255 255 255
4.85133 -0.446682 -1.12476 255 255 255
5.65945 -0.523641 -1.10478 255 255 255
11.7664 -1.09134 1.03384 255 255 255
6.3275 -0.588307 -1.0065 255 255 255
11.7761 -1.09756 1.4522 255 255 255
8.5819 -0.801784 -1.05831 255 255 255
11.7593 -1.10129 1.87064 255 255 255
10.5041 -0.988481 2.05082 255 255 255
6.66125 -0.628354 -0.350651 255 255 255
8.78665 -0.830825 2.03761 255 255 255
11.8013 -1.11854 -0.206916 255 255 255
7.51968 -0.714419 2.02396 255 255 255
4.17324 -0.397427 -1.12328 255 255 255
4.83614 -0.462579 -1.12161 255 255 255
0 -0 0 255 255 255
5.65562 -0.543329 -1.1044 255 255 255
11.7803 -1.13419 1.03541 255 255 255
6.32934 -0.610701 -1.00713 255 255 255
11.7762 -1.13872 1.45268 255 255 255
8.58699 -0.832127 -1.05929 255 255 255
11.7653 -1.14259 1.87221 255 255 255
0 -0 -0 255 255 255
6.6233 -0.647378 -0.348767 255 255 255
8.78575 -0.860579 2.03806 255 255 255
11.8094 -1.15923 -0.207125 255 255 255
7.5211 -0.739853 2.025 255 255 255
4.17574 -0.411643 -1.12431 255 255 255
12.1092 -1.19625 0.212396 255 255 255
4.8307 -0.47823 -1.12071 255 255 255
5.65769 -0.562469 -1.10517 255 255 255
11.7785 -1.17344 1.03559 255 255 255
6.32335 -0.631294 -1.0065 255 255 255
11.7724 -1.17776 1.45268 255 255 255
7.27068 -0.728914 -0.897202 255 255 255
11.7772 -1.18317 1.87471 255 255 255
0 -0 -0 255 255 255
10.4933 -1.05859 2.05005 255 255 255
6.62907 -0.670142 -0.349186 255 255 255
8.78866 -0.890298 2.03941 255 255 255
11.8294 -1.2008 -0.207544 255 255 255
7.53398 -0.766353 2.02914 255 255 255
4.18204 -0.426271 -1.12638 255 255 255
4.82132 -0.493558 -1.11891 255 255 255
0 -0 0 255 255 255
5.65772 -0.581675 -1.10555 255 255 255
11.7923 -1.21497 1.03715 255 255 255
6.32708 -0.653282 -1.00744 255 255 255
11.7802 -1.21892 1.45414 255 255 255
8.54566 -0.886123 -1.0549 255 255 255
11.7888 -1.22501 1.87721 255 255 255
7.39759 -0.770339 -0.650705 255 255 255
10.4857 -1.09423 2.04929 255 255 255
8.78165 -0.920277 2.03851 255 255 255
11.8132 -1.24058 -0.207335 255 255 255
7.53127 -0.792565 2.02914 255 255 255
4.17861 -0.440664 -1.12586 255 255 255
0 -0 0 255 255 255
4.82732 -0.511205 -1.12071 255 255 255
0 -0 0 255 255 255
5.6498 -0.600798 -1.1044 255 255 255
11.7959 -1.25698 1.03785 255 255 255
6.38172 -0.681446 -1.01651 255 255 255
11.7995 -1.26257 1.45707 255 255 255
8.56225 -0.918064 -1.05734 255 255 255
11.7884 -1.26658 1.87784 255 255 255
7.39882 -0.796583 -0.651053 255 255 255
8.78032 -0.951135 2.03896 255 255 255
11.8208 -1.2831 -0.207544 255 255 255
7.52846 -0.818849 2.02914 255 255 255
4.15592 -0.452945 -1.12017 255 255 255
12.1241 -1.32405 0.212884 255 255 255
4.82938 -0.528477 -1.12161 255 255 255
12.1425 -1.33142 0.640173 255 255 255
5.64572 -0.620301 -1.10402 255 255 255
11.7895 -1.29792 1.03768 255 255 255
6.54423 -0.721912 -1.04279 255 255 255
11.797 -1.30397 1.45731 255 255 255
8.5511 -0.947072 -1.05636 255 255 255
11.7878 -1.30815 1.87847 255 255 255
10.4895 -1.16871 2.05158 255 255 255
8.78276 -0.982428 2.04031 255 255 255
11.8242 -1.32525 -0.207684 255 255 255
7.51979 -0.844477 2.02759 255 255 255
4.17351 -0.469609 -1.12534 255 255 255
0 -0 0 255 255 255
4.81395 -0.5438 -1.11846 255 255 255
0 -0 0 255 255 255
5.63767 -0.639341 -1.10288 255 255 255
11.8007 -1.34087 1.03907 255 255 255
11.8042 -1.34649 1.45878 255 255 255
8.52408 -0.97421 -1.05344 255 255 255
11.8028 -1.35154 1.88159 255 255 255
8.78315 -1.01353 2.04121 255 255 255
11.8334 -1.36812 -0.207928 255 255 255
7.5168 -0.870721 2.02759 255 255 255
4.15274 -0.481223 -1.12017 255 255 255
0 -0 0 255 255 255
4.81406 -0.559986 -1.11891 255 255 255
0 -0 0 255 255 255
5.64917 -0.659627 -1.10555 255 255 255
11.812 -1.38185 1.04046 255 255 255
6.70593 -0.785986 -1.06939 255 255 255
11.8036 -1.38609 1.45926 255 255 255
8.4104 -0.989483 -1.03979 255 255 255
11.8061 -1.3916 1.88285 255 255 255
6.67791 -0.78861 -0.588301 255 255 255
10.4853 -1.24055 2.05234 255 255 255
8.772 -1.04173 2.03941 255 255 255
7.51771 -0.8961 2.02862 255 255 255
4.15871 -0.496632 -1.12224 255 255 255
12.1455 -1.4531 0.213513 255 255 255
4.8082 -0.576323 -1.11801 255 255 255
0 -0 0 255 255 255
5.63319 -0.6777 -1.10288 255 255 255
11.819 -1.4245 1.04151 255 255 255
6.76198 -0.816494 -1.07877 255 255 255
11.8125 -1.42895 1.46097 255 255 255
6.66679 -0.807951 -0.824568 255 255 255
11.807 -1.43351 1.88378 255 255 255
6.69292 -0.814081 -0.58987 255 255 255
10.4925 -1.27857 2.05463 255 255 255
11.8337 -1.44985 -0.208102 255 255 255
7.51837 -0.922807 2.02966 255 255 255
4.15695 -0.511145 -1.12224 255 255 255
0 -0 0 255 255 255
4.80423 -0.592864 -1.11756 255 255 255
0 -0 0 255 255 255
5.62299 -0.696395 -1.10135 255 255 255
11.8258 -1.46722 1.04256 255 255 255
6.74929 -0.838874 -1.07721 255 255 255
11.8272 -1.47263 1.46341 255 255 255
6.69544 -0.835148 -0.828468 255 255 255
11.802 -1.47472 1.88378 255 255 255
6.70585 -0.839418 -0.591265 255 255 255
0 -0 -0 255 255 255
8.76451 -1.10294 2.03941 255 255 255
11.8286 -1.49115 -0.208102 255 255 255
7.5151 -0.949045 2.02966 255 255 255
4.14747 -0.524683 -1.12017 255 255 255
0 -0 0 255 255 255
4.80793 -0.610367 -1.11891 255 255 255
0 -0 0 255 255 255
5.62442 -0.716514 -1.10211 255 255 255
11.8167 -1.50798 1.04221 255 255 255
6.76004 -0.864182 -1.0794 255 255 255
11.8357 -1.51567 1.46511 255 255 255
6.70233 -0.859778 -0.829686 255 255 255
11.8163 -1.51842 1.88691 255 255 255
6.69102 -0.861295 -0.590219 255 255 255
10.5028 -1.3543 2.05845 255 255 255
0 -0 -0 255 255 255
8.75868 -1.13328 2.03896 255 255 255
11.8213 -1.53217 -0.208068 255 255 255
7.51174 -0.975272 2.02966 255 255 255
4.15711 -0.540652 -1.12328 255 255 255
11.8322 -1.54146 0.208277 255 255 255
4.79224 -0.625381 -1.11576 255 255 255
11.8389 -1.54759 0.625729 255 255 255
5.62189 -0.736143 -1.10211 255 255 255
11.8311 -1.55182 1.04395 255 255 255
6.74719 -0.886487 -1.07783 255 255 255
11.8323 -1.55723 1.46536 255 255 255
6.70126 -0.883427 -0.82993 255 255 255
11.8266 -1.56173 1.88942 255 255 255
6.68798 -0.884645 -0.590219 255 255 255
10.4689 -1.38708 2.05272 255 255 255
0 -0 -0 255 255 255
8.76626 -1.16539 2.04166 255 255 255
11.8535 -1.57844 -0.208731 255 255 255
7.50255 -1.00072 2.02811 255 255 255
4.14754 -0.554136 -1.1212 255 255 255
11.8545 -1.58647 0.208766 255 255 255
4.79003 -0.642105 -1.11576 255 255 255
11.8453 -1.5905 0.626357 255 255 255
5.61539 -0.755239 -1.10135 255 255 255
11.8434 -1.5955 1.04552 255 255 255
6.74014 -0.909505 -1.07721 255 255 255
11.8347 -1.59959 1.46633 255 255 255
6.66666 -0.902553 -0.82603 255 255 255
11.8407 -1.60566 1.89254 255 255 255
10.4698 -1.42441 2.05387 255 255 255
0 -0 -0 255 255 255
8.75441 -1.19492 2.03986 255 255 255
11.8797 -1.62414 -0.209289 255 255 255
7.51432 -1.029 2.03225 255 255 255
4.15132 -0.569398 -1.12276 255 255 255
11.8687 -1.63043 0.209115 255 255 255
4.7897 -0.658982 -1.11621 255 255 255
11.8556 -1.63363 0.627194 255 255 255
5.60303 -0.773249 -1.09944 255 255 255
11.8556 -1.63864 1.04709 255 255 255
6.73698 -0.932586 -1.07721 255 255 255
11.841 -1.64162 1.46779 255 255 255
6.33912 -0.88019 -0.785814 255 255 255
11.8391 -1.64636 1.89317 255 255 255
6.35219 -0.884688 -0.561109 255 255 255
10.4805 -1.46186 2.05692 255 255 255
8.75036 -1.22424 2.03986 255 255 255
11.8781 -1.66434 -0.209359 255 255 255
7.52042 -1.05534 2.03484 255 255 255
4.15897 -0.584506 -1.12534 255 255 255
11.8791 -1.67201 0.209394 255 255 255
4.78749 -0.674862 -1.11621 255 255 255
11.8619 -1.67461 0.627822 255 255 255
5.60627 -0.79265 -1.10059 255 255 255
11.8599 -1.67934 1.04796 255 255 255
6.74167 -0.956031 -1.07846 255 255 255
11.8473 -1.68255 1.46926 255 255 255
6.32634 -0.899809 -0.784595 255 255 255
11.8375 -1.68617 1.8938 255 255 255
6.33739 -0.90406 -0.560063 255 255 255
10.4775 -1.49689 2.0573 255 255 255
0 -0 -0 255 255 255
8.75976 -1.25518 2.043 255 255 255
11.8844 -1.70543 -0.209568 255 255 255
7.50923 -1.07917 2.03276 255 255 255
4.15128 -0.597468 -1.12379 255 255 255
11.8814 -1.71266 0.209534 255 255 255
4.80836 -0.69418 -1.12161 255 255 255
11.876 -1.71718 0.628869 255 255 255
5.61329 -0.812888 -1.10249 255 255 255
11.8542 -1.71931 1.04796 255 255 255
6.73449 -0.978255 -1.07783 255 255 255
11.8533 -1.72445 1.47072 255 255 255
6.33503 -0.923052 -0.786057 255 255 255
11.8473 -1.72886 1.8963 255 255 255
6.32834 -0.924897 -0.55954 255 255 255
10.4723 -1.53288 2.0573 255 255 255
0 -0 -0 255 255 255
8.75537 -1.28546 2.043 255 255 255
11.8824 -1.74722 -0.209638 255 255 255
7.50161 -1.10473 2.03173 255 255 255
4.12623 -0.608573 -1.11758 255 255 255
11.8832 -1.75529 0.209673 255 255 255
4.79048 -0.708679 -1.11801 255 255 255
11.8858 -1.76097 0.629706 255 255 255
5.60265 -0.831324 -1.10097 255 255 255
11.8639 -1.76302 1.04936 255 255 255
6.71931 -1.00001 -1.07596 255 255 255
11.8629 -1.76816 1.47267 255 255 255
6.34551 -0.947211 -0.787763 255 255 255
11.8568 -1.77254 1.8988 255 255 255
6.32704 -0.947276 -0.559714 255 255 255
0 -0 -0 255 255 255
8.75853 -1.31718 2.04481 255 255 255
11.8881 -1.79048 -0.209848 255 255 255
7.50917 -1.13264 2.03484 255 255 255
4.1279 -0.623549 -1.11862 255 255 255
11.879 -1.79713 0.209708 255 255 255
4.761 -0.721361 -1.11171 255 255 255
11.8795 -1.80264 0.629706 255 255 255
5.59969 -0.850998 -1.10097 255 255 255
11.8813 -1.80834 1.05145 255 255 255
6.72551 -1.02517 -1.07752 255 255 255
11.8566 -1.81001 1.47267 255 255 255
6.34212 -0.969632 -0.787763 255 255 255
11.87 -1.81749 1.90193 255 255 255
6.36303 -0.975741 -0.5632 255 255 255
10.4632 -1.60688 2.05768 255 255 255
0 -0 -0 255 255 255
8.74223 -1.34658 2.04211 255 255 255
11.9073 -1.83683 -0.210301 255 255 255
7.50126 -1.15887 2.0338 255 255 255
4.14664 -0.641564 -1.12431 255 255 255
11.8863 -1.84176 0.209952 255 255 255
4.74683 -0.736598 -1.10901 255 255 255
11.873 -1.84513 0.629706 255 255 255
5.58885 -0.86982 -1.09944 255 255 255
11.8806 -1.85176 1.05197 255 255 255
6.7218 -1.04923 -1.07752 255 255 255
11.8677 -1.85518 1.47486 255 255 255
6.3543 -0.994773 -0.789713 255 255 255
11.8693 -1.86086 1.90287 255 255 255
4.54475 -0.713568 -0.402485 255 255 255
10.4574 -1.6443 2.05768 255 255 255
0 -0 -0 255 255 255
8.74121 -1.37846 2.043 255 255 255
7.50469 -1.18691 2.03587 255 255 255
4.12524 -0.653374 -1.11913 255 255 255
14.0996 -2.23615 0.249185 255 255 255
4.70955 -0.74792 -1.10091 255 255 255
16.4623 -2.61786 0.873592 255 255 255
5.59158 -0.890372 -1.10059 255 255 255
11.8898 -1.89579 1.05336 255 255 255
6.72981 -1.07448 -1.0794 255 255 255
11.8769 -1.89878 1.47681 255 255 255
8.46778 -1.35556 -1.05295 255 255 255
11.8745 -1.90345 1.90475 255 255 255
4.50688 -0.723398 -0.399348 255 255 255
10.4808 -1.6845 2.06341 255 255 255
0 -0 -0 255 255 255
8.74037 -1.40849 2.04391 255 255 255
7.49498 -1.21098 2.03432 255 255 255
4.13068 -0.668284 -1.1212 255 255 255
14.0586 -2.27746 0.248592 255 255 255
4.71089 -0.764158 -1.10181 255 255 255
5.5886 -0.908909 -1.10059 255 255 255
11.8835 -1.93521 1.05336 255 255 255
6.70282 -1.09297 -1.07564 255 255 255
11.894 -1.94199 1.47974 255 255 255
8.45149 -1.38171 -1.05149 255 255 255
11.8759 -1.94409 1.906 255 255 255
4.51625 -0.740273 -0.400393 255 255 255
10.4558 -1.71607 2.05959 255 255 255
0 -0 -0 255 255 255
8.72411 -1.43557 2.04121 255 255 255
14.0899 -2.32151 -0.249255 255 255 255
7.48711 -1.2352 2.03328 255 255 255
4.11701 -0.680089 -1.1181 255 255 255
14.0982 -2.33213 0.24943 255 255 255
4.70446 -0.779293 -1.10091 255 255 255
16.0582 -2.66373 0.853076 255 255 255
5.58937 -0.928446 -1.10135 255 255 255
11.8847 -1.97689 1.05406 255 255 255
6.69125 -1.11456 -1.07439 255 255 255
11.8951 -1.98409 1.48071 255 255 255
8.44276 -1.41018 -1.051 255 255 255
11.8808 -1.98717 1.90787 255 255 255
4.49007 -0.752034 -0.398302 255 255 255
10.4575 -1.75391 2.06112 255 255 255
0 -0 -0 255 255 255
8.7459 -1.47087 2.0475 255 255 255
14.121 -2.37809 -0.249953 255 255 255
7.49028 -1.26315 2.03535 255 255 255
4.11264 -0.694494 -1.11758 255 255 255
14.0918 -2.38289 0.249465 255 255 255
4.73238 -0.801325 -1.10811 255 255 255
5.57052 -0.945809 -1.0983 255 255 255
11.905 -2.02407 1.0565 255 255 255
6.68138 -1.13749 -1.07345 255 255 255
11.886 -2.0263 1.48047 255 255 255
8.47679 -1.44706 -1.05588 255 255 255
11.8989 -2.03399 1.91194 255 255 255
4.43825 -0.759691 -0.393944 255 255 255
10.4569 -1.79231 2.06226 255 255 255
0 -0 -0 255 255 255
8.72905 -1.50017 2.04481 255 255 255
14.1597 -2.43673 -0.250791 255 255 255
7.48762 -1.29027 2.03587 255 255 255
4.10823 -0.708875 -1.11706 255 255 255
4.73526 -0.819146 -1.10946 255 255 255
5.55747 -0.963814 -1.09639 255 255 255
11.9135 -2.06873 1.0579 255 255 255
6.68124 -1.16163 -1.07408 255 255 255
11.9101 -2.07336 1.48437 255 255 255
8.42867 -1.46914 -1.05051 255 255 255
11.9035 -2.07742 1.91382 255 255 255
4.37867 -0.765136 -0.388889 255 255 255
10.47 -1.83184 2.06608 255 255 255
0 -0 -0 255 255 255
8.72001 -1.52948 2.04391 255 255 255
14.4644 -2.54022 -0.256341 255 255 255
7.49458 -1.31783 2.03898 255 255 255
4.10198 -0.722183 -1.11603 255 255 255
12.8853 -2.27138 0.228382 255 255 255
4.75164 -0.838644 -1.11396 255 255 255
12.8746 -2.27513 0.685182 255 255 255
5.4807 -0.969724 -1.08189 255 255 255
11.9103 -2.10996 1.05824 255 255 255
6.65001 -1.17953 -1.0697 255 255 255
11.9088 -2.11492 1.4851 255 255 255
8.42362 -1.49782 -1.05051 255 255 255
11.8963 -2.11792 1.91382 255 255 255
4.32112 -0.770244 -0.384008 255 255 255
10.5062 -1.87505 2.07448 255 255 255
0 -0 -0 255 255 255
8.7301 -1.5619 2.0475 255 255 255
7.48435 -1.34231 2.03742 255 255 255
4.0995 -0.73614 -1.11603 255 255 255
12.85 -2.31034 0.227894 255 255 255
4.74683 -0.854517 -1.11351 255 255 255
12.8215 -2.311 0.682775 255 255 255
5.45996 -0.985353 -1.07845 255 255 255
11.907 -2.15152 1.05859 255 255 255
5.42132 -0.980822 -0.872591 255 255 255
11.923 -2.15978 1.48778 255 255 255
8.41841 -1.52685 -1.05051 255 255 255
11.9025 -2.16145 1.91601 255 255 255
4.30667 -0.783043 -0.382962 255 255 255
10.546 -1.91987 2.08363 255 255 255
0 -0 -0 255 255 255
8.72078 -1.59152 2.04661 255 255 255
12.8257 -2.34354 -0.227579 255 255 255
7.46062 -1.36491 2.03225 255 255 255
4.07601 -0.746616 -1.11033 255 255 255
12.7887 -2.34544 0.226951 255 255 255
4.7074 -0.864395 -1.10496 255 255 255
5.55302 -1.02218 -1.09753 255 255 255
11.919 -2.19668 1.06034 255 255 255
11.9212 -2.20247 1.48851 255 255 255
0 -0 -0 255 255 255
11.9182 -2.2073 1.91976 255 255 255
10.5451 -1.95774 2.08478 255 255 255
8.73242 -1.62516 2.05065 255 255 255
12.7742 -2.38024 -0.226811 255 255 255
7.47101 -1.39377 2.03639 255 255 255
4.07338 -0.76084 -1.11033 255 255 255
4.44194 -0.831687 -1.04332 255 255 255
12.7913 -2.39788 0.682042 255 255 255
5.55714 -1.043 -1.09906 255 255 255
11.9269 -2.24122 1.06173 255 255 255
11.9154 -2.24444 1.48876 255 255 255
0 -0 -0 255 255 255
11.9318 -2.25292 1.92321 255 255 255
10.5015 -1.9876 2.07753 255 255 255
12.7552 -2.41704 -0.680367 255 255 255
8.71712 -1.65382 2.0484 255 255 255
12.7245 -2.41698 -0.226078 255 255 255
7.46989 -1.42057 2.03742 255 255 255
4.09157 -0.779029 -1.11603 255 255 255
4.3433 -0.828921 -1.02083 255 255 255
0 -0 0 255 255 255
5.54768 -1.06129 -1.09792 255 255 255
11.9503 -2.28883 1.06452 255 255 255
6.47776 -1.24214 -1.04467 255 255 255
11.9231 -2.28901 1.49071 255 255 255
0 -0 -0 255 255 255
11.9278 -2.2953 1.92383 255 255 255
10.4887 -2.02313 2.07638 255 255 255
12.6996 -2.45246 -0.677855 255 255 255
12.6394 -2.44656 -0.224717 255 255 255
7.46868 -1.44737 2.03846 255 255 255
4.09262 -0.794042 -1.11706 255 255 255
14.5086 -2.81821 0.257981 255 255 255
4.3442 -0.844821 -1.02173 255 255 255
0 -0 0 255 255 255
11.952 -2.33244 1.06539 255 255 255
6.42686 -1.25566 -1.03716 255 255 255
11.9384 -2.33519 1.49363 255 255 255
0 -0 -0 255 255 255
10.5413 -2.07147 2.08821 255 255 255
12.6283 -2.48444 -0.674506 255 255 255
8.69771 -1.71312 2.04661 255 255 255
12.5661 -2.47789 -0.223565 255 255 255
7.456 -1.47193 2.03639 255 255 255
4.09172 -0.808698 -1.11758 255 255 255
14.5732 -2.88359 0.259308 255 255 255
4.34696 -0.861116 -1.02308 255 255 255
14.5992 -2.89536 0.780015 255 255 255
4.73906 -0.940938 -0.939162 255 255 255
11.9555 -2.37648 1.06644 255 255 255
6.43794 -1.28117 -1.03966 255 255 255
11.9496 -2.38073 1.49607 255 255 255
0 -0 -0 255 255 255
10.8673 -2.17003 1.7552 255 255 255
10.5302 -2.10748 2.08745 255 255 255
12.5216 -2.50888 -0.669272 255 255 255
8.70506 -1.74616 2.04975 255 255 255
12.5005 -2.51032 -0.222553 255 255 255
7.44703 -1.49719 2.03535 255 255 255
4.08319 -0.821832 -1.11603 255 255 255
14.4572 -2.91303 0.257423 255 255 255
4.34585 -0.876623 -1.02353 255 255 255
0 -0 0 255 255 255
4.73577 -0.957372 -0.939162 255 255 255
11.9472 -2.41787 1.06644 255 255 255
6.61158 -1.33951 -1.06845 255 255 255
11.9472 -2.42315 1.4968 255 255 255
0 -0 -0 255 255 255
10.8733 -2.21017 1.75739 255 255 255
4.28547 -0.872035 -0.382614 255 255 255
10.4709 -2.13301 2.07715 255 255 255
12.4464 -2.53819 -0.665713 255 255 255
8.70094 -1.77631 2.0502 255 255 255
12.4468 -2.54378 -0.22175 255 255 255
7.44945 -1.52411 2.03742 255 255 255
4.09551 -0.838825 -1.12017 255 255 255
4.3333 -0.889449 -1.02128 255 255 255
0 -0 0 255 255 255
4.74594 -0.976253 -0.941833 255 255 255
11.9643 -2.46374 1.0687 255 255 255
5.00119 -1.03097 -0.808766 255 255 255
10.8832 -2.24594 1.36445 255 255 255
0 -0 -0 255 255 255
10.8677 -2.24756 1.7577 255 255 255
4.33321 -0.897117 -0.387146 255 255 255
10.4771 -2.17143 2.07982 255 255 255
8.70248 -1.80749 2.052 255 255 255
12.3676 -2.57147 -0.220494 255 255 255
7.45179 -1.55103 2.03949 255 255 255
4.08128 -0.850394 -1.11706 255 255 255
12.2798 -2.56147 0.218958 255 255 255
4.33977 -0.906231 -1.02353 255 255 255
12.2657 -2.56411 0.656712 255 255 255
4.70414 -0.98446 -0.934201 255 255 255
11.9597 -2.50559 1.06905 255 255 255
4.97055 -1.04248 -0.804386 255 255 255
10.8638 -2.28094 1.36299 255 255 255
0 -0 -0 255 255 255
10.8599 -2.28507 1.7577 255 255 255
4.33008 -0.912096 -0.387146 255 255 255
10.5406 -2.22269 2.09394 255 255 255
7.59204 -1.60266 -0.40665 255 255 255
8.67136 -1.83248 2.04615 255 255 255
12.3155 -2.60539 -0.219726 255 255 255
7.44445 -1.5766 2.03898 255 255 255
4.07451 -0.863834 -1.11603 255 255 255
12.2453 -2.59892 0.218504 255 255 255
4.34802 -0.923804 -1.02623 255 255 255
12.2254 -2.60026 0.655037 255 255 255
4.69683 -1.00006 -0.933438 255 255 255
11.9645 -2.55023 1.07027 255 255 255
6.60512 -1.40938 -1.0697 255 255 255
10.8674 -2.32134 1.36445 255 255 255
0 -0 -0 255 255 255
10.8441 -2.32131 1.75645 255 255 255
10.504 -2.25329 2.08821 255 255 255
7.57663 -1.62706 -0.406127 255 255 255
8.68396 -1.86683 2.05065 255 255 255
12.2457 -2.63532 -0.218644 255 255 255
7.4389 -1.60257 2.03898 255 255 255
4.06769 -0.877237 -1.11499 255 255 255
12.1951 -2.63279 0.217771 255 255 255
4.38477 -0.94762 -1.03568 255 255 255
12.1772 -2.63447 0.652943 255 255 255
4.69331 -1.01645 -0.933438 255 255 255
11.9789 -2.59704 1.07236 255 255 255
6.60016 -1.43243 -1.0697 255 255 255
10.867 -2.36094 1.36542 255 255 255
10.8398 -2.35999 1.75707 255 255 255
4.3236 -0.942303 -0.387146 255 255 255
10.4711 -2.2845 2.08325 255 255 255
4.10546 -0.896636 -0.22023 255 255 255
8.67359 -1.8963 2.04975 255 255 255
12.1915 -2.66822 -0.217841 255 255 255
7.4125 -1.62398 2.03328 255 255 255
4.06083 -0.890603 -1.11396 255 255 255
12.1351 -2.66419 0.216864 255 255 255
4.44995 -0.977979 -1.05187 255 255 255
12.125 -2.66752 0.650641 255 255 255
4.71083 -1.03747 -0.937635 255 255 255
11.9717 -2.63927 1.07254 255 255 255
4.69316 -1.03572 -0.76121 255 255 255
10.8548 -2.398 1.36494 255 255 255
4.7061 -1.04073 -0.591798 255 255 255
10.8296 -2.39738 1.75676 255 255 255
0 -0 -0 255 255 255
4.08671 -0.907498 -0.219392 255 255 255
8.67452 -1.92826 2.05155 255 255 255
7.40867 -1.65027 2.0338 255 255 255
4.07278 -0.908136 -1.1181 255 255 255
11.9988 -2.67828 0.214595 255 255 255
4.5473 -1.01608 -1.07572 255 255 255
12.0142 -2.68735 0.645198 255 255 255
4.70141 -1.05272 -0.936491 255 255 255
11.9915 -2.6879 1.07515 255 255 255
4.70683 -1.05615 -0.764026 255 255 255
10.8346 -2.43368 1.36347 255 255 255
4.69271 -1.05518 -0.590579 255 255 255
10.8249 -2.43657 1.75739 255 255 255
10.5179 -2.37243 2.09585 255 255 255
4.04839 -0.914107 -0.217508 255 255 255
8.68661 -1.96344 2.05605 255 255 255
12.0398 -2.72418 -0.215467 255 255 255
7.43853 -1.68483 2.04363 255 255 255
4.06197 -0.920993 -1.11603 255 255 255
12.0204 -2.72828 0.215153 255 255 255
4.60445 -1.04616 -1.09011 255 255 255
12.0065 -2.73077 0.645302 255 255 255
4.69952 -1.06997 -0.936872 255 255 255
11.9935 -2.73345 1.0762 255 255 255
4.70688 -1.07386 -0.764652 255 255 255
10.8297 -2.47332 1.36396 255 255 255
4.68503 -1.07108 -0.590091 255 255 255
10.8199 -2.47617 1.75801 255 255 255
4.04924 -0.927631 -0.363439 255 255 255
10.5094 -2.41005 2.09585 255 255 255
4.03536 -0.926351 -0.216985 255 255 255
8.67003 -1.99232 2.0538 255 255 255
12.0455 -2.77083 -0.215747 255 255 255
7.42681 -1.71013 2.04208 255 255 255
4.04924 -0.933351 -1.11344 255 255 255
12.0359 -2.77698 0.215607 255 255 255
4.63867 -1.0713 -1.09911 255 255 255
12.0064 -2.77556 0.645826 255 255 255
4.69763 -1.08702 -0.937254 255 255 255
12.0032 -2.78018 1.07794 255 255 255
4.70307 -1.09038 -0.764652 255 255 255
10.8365 -2.51481 1.36591 255 255 255
4.68707 -1.08878 -0.590823 255 255 255
10.8055 -2.51246 1.75707 255 255 255
4.01106 -0.933542 -0.360302 255 255 255
3.9874 -0.929824 -0.214577 255 255 255
8.65554 -2.02033 2.052 255 255 255
12.0379 -2.81253 -0.215782 255 255 255
7.4134 -1.73372 2.04001 255 255 255
4.04792 -0.947567 -1.11396 255 255 255
12.0361 -2.82021 0.215782 255 255 255
4.65397 -1.09153 -1.10361 255 255 255
12.028 -2.82371 0.6475 255 255 255
4.69581 -1.10345 -0.937635 255 255 255
12.013 -2.82558 1.07968 255 255 255
4.7051 -1.10774 -0.76559 255 255 255
4.69493 -1.10746 -0.592285 255 255 255
10.7911 -2.54786 1.75613 255 255 255
3.97296 -0.93894 -0.357164 255 255 255
3.97255 -0.940628 -0.213949 255 255 255
8.66 -2.05247 2.0547 255 255 255
12.0594 -2.86087 -0.21634 255 255 255
7.40558 -1.7585 2.03949 255 255 255
4.04843 -0.962232 -1.11499 255 255 255
12.0381 -2.864 0.215991 255 255 255
4.66159 -1.11012 -1.10631 255 255 255
12.0377 -2.86946 0.648547 255 255 255
4.70919 -1.12363 -0.94107 255 255 255
12.0091 -2.86817 1.08021 255 255 255
4.69167 -1.12161 -0.764026 255 255 255
12.0121 -2.87443 1.51654 255 255 255
4.7046 -1.12687 -0.593991 255 255 255
10.7899 -2.58694 1.75739 255 255 255
3.98132 -0.955462 -0.35821 255 255 255
10.3923 -2.49641 2.07753 255 255 255
3.95762 -0.951601 -0.213321 255 255 255
8.66797 -2.0862 2.0583 255 255 255
12.0611 -2.90562 -0.216549 255 255 255
7.40316 -1.7852 2.04053 255 255 255
4.04504 -0.976358 -1.11499 255 255 255
12.0417 -2.90929 0.216235 255 255 255
4.64443 -1.12318 -1.10316 255 255 255
12.0432 -2.91522 0.649385 255 255 255
4.70906 -1.14098 -0.941833 255 255 255
12.0358 -2.91899 1.08352 255 255 255
4.68964 -1.13844 -0.764339 255 255 255
12.0117 -2.91869 1.51776 255 255 255
4.70063 -1.14328 -0.593991 255 255 255
12.0264 -2.92784 1.96044 255 255 255
3.96247 -0.96558 -0.356816 255 255 255
10.3568 -2.52616 2.07219 255 255 255
3.94069 -0.962094 -0.212589 255 255 255
8.6966 -2.12523 2.06685 255 255 255
12.0625 -2.95056 -0.216759 255 255 255
7.40626 -1.81333 2.04312 255 255 255
4.04536 -0.991391 -1.11603 255 255 255
12.0586 -2.95791 0.216724 255 255 255
4.64617 -1.14073 -1.10451 255 255 255
12.033 -2.95705 0.649385 255 255 255
4.70698 -1.15778 -0.942215 255 255 255
12.0333 -2.96256 1.08422 255 255 255
4.69718 -1.15749 -0.766216 255 255 255
12.0246 -2.96584 1.52069 255 255 255
4.67739 -1.15472 -0.591554 255 255 255
12.0336 -2.97348 1.96325 255 255 255
3.963 -0.980146 -0.357164 255 255 255
10.3672 -2.5664 2.076 255 255 255
3.95676 -0.980389 -0.213635 255 255 255
8.75737 -2.17184 2.08305 255 255 255
12.0601 -2.99365 -0.216899 255 255 255
7.40754 -1.84043 2.04519 255 255 255
4.04572 -1.00609 -1.11706 255 255 255
12.0737 -3.00521 0.217178 255 255 255
4.65172 -1.15889 -1.10676 255 255 255
12.0539 -3.00571 0.651059 255 255 255
4.70491 -1.17427 -0.942596 255 255 255
12.0425 -3.00833 1.08596 255 255 255
1.99687 -0.499287 -0.326009 255 255 255
12.0337 -3.01157 1.52312 255 255 255
12.0272 -3.01538 1.96388 255 255 255
3.96737 -0.995568 -0.357861 255 255 255
3.95921 -0.995311 -0.213949 255 255 255
8.78206 -2.20972 2.09069 255 255 255
12.0731 -3.04054 -0.217317 255 255 255
7.39374 -1.86374 2.04312 255 255 255
4.02728 -1.01607 -1.11292 255 255 255
12.0692 -3.04782 0.217282 255 255 255
4.64584 -1.17429 -1.10631 255 255 255
12.059 -3.05083 0.651897 255 255 255
4.70277 -1.19086 -0.942978 255 255 255
12.0399 -3.05158 1.08666 255 255 255
1.99514 -0.506145 -0.326009 255 255 255
12.0348 -3.0559 1.52459 255 255 255
12.0359 -3.06175 1.96701 255 255 255
3.95618 -1.00732 -0.357164 255 255 255
10.355 -2.63898 2.07715 255 255 255
3.95573 -1.00904 -0.213949 255 255 255
8.72713 -2.22817 2.07945 255 255 255
12.0896 -3.08946 -0.217806 255 255 255
7.38346 -1.88854 2.04208 255 255 255
4.04056 -1.03443 -1.11758 255 255 255
12.0701 -3.09291 0.217492 255 255 255
4.63605 -1.18904 -1.10496 255 255 255
12.0754 -3.09986 0.653362 255 255 255
1.98515 -0.510071 -0.398409 255 255 255
12.0407 -3.09657 1.0877 255 255 255
1.97232 -0.50769 -0.322568 255 255 255
12.0433 -3.10284 1.52702 255 255 255
3.34464 -0.862493 -0.424105 255 255 255
12.0481 -3.10967 1.97076 255 255 255
3.95264 -1.02112 -0.357164 255 255 255
10.3362 -2.67265 2.07524 255 255 255
3.95605 -1.02384 -0.214159 255 255 255
8.70043 -2.25373 2.07495 255 255 255
12.0903 -3.13466 -0.218015 255 255 255
7.36934 -1.91236 2.04001 255 255 255
4.03505 -1.04804 -1.11706 255 255 255
12.0767 -3.13955 0.217806 255 255 255
1.92366 -0.500538 -0.4589 255 255 255
12.0799 -3.14602 0.654199 255 255 255
1.96626 -0.51254 -0.394975 255 255 255
12.0452 -3.1426 1.0891 255 255 255
1.97627 -0.516069 -0.323506 255 255 255
